VERSION .7
FIELDS x y z
SIZE 4 4 4
TYPE F F F
COUNT 1 1 1
WIDTH 1181
HEIGHT 1
VIEWPOINT 0.0 0.0 0.0 1.0 0.0 0.0 0.0
POINTS 1181
DATA ascii
-0.0480398908 -0.0256294850 0.0065240860
-0.0046541868 -0.0380756035 0.0400314331
0.0543625318 0.0445646495 -0.0239083767
0.0170232467 0.0439334810 -0.0092802048
-0.0048777768 0.0366462171 -0.0012773275
0.0204867758 0.0296524614 0.0004879236
-0.0046929186 -0.0450658426 0.0328756571
0.0739708096 0.0308091585 -0.0389358997
0.0427216813 -0.0120723611 -0.0116105080
0.0059081847 0.0121270912 0.0171194077
-0.0394780301 -0.0014645049 0.0393247604
0.0326747224 0.0778935477 -0.0425978899
0.0059215273 0.0155728608 0.0146543384
-0.0012133459 -0.0627409443 0.0186309218
-0.0263973754 -0.0462243296 0.0080148578
0.0586552322 0.0629392788 -0.0343234539
-0.0230507366 -0.0606195442 -0.0025732517
0.0779830441 0.0345199928 -0.0422861576
-0.0580048077 0.0052942755 0.0205679536
-0.0737519413 -0.0084686596 -0.0003639460
0.0058474001 -0.0149583109 0.0283495188
0.0276562050 0.0157499444 0.0032538176
0.0471209548 0.0589867793 -0.0278718472
-0.0233564246 -0.0754885897 -0.0156062841
0.0206392538 0.0403521024 -0.0071949959
0.0280532315 0.0440256558 -0.0114164352
-0.0012245059 -0.0699831620 0.0124454498
-0.0370598808 0.0190535467 0.0112464428
-0.0194172282 -0.0640939772 -0.0025572777
-0.0632121190 -0.0224592946 -0.0056819916
-0.0330739506 0.0120561551 0.0229910016
0.0715992600 0.0020374064 -0.0598006248
-0.0011807494 -0.0281882379 0.0366977453
0.0470142141 0.0552973859 -0.0255053043
-0.0619338118 0.0053253770 0.0145611167
0.0058723097 -0.0522604138 0.0237473845
0.0096136350 0.0330929495 0.0012320280
-0.0156650189 -0.0601755939 0.0047762394
0.0132762734 0.0366791859 -0.0021870136
0.0318396017 0.0477158763 -0.0153702497
-0.0266891904 -0.0571551733 -0.0027678013
-0.0117069585 -0.0014761128 0.0325990319
0.0393794104 0.0514747053 -0.0201494694
0.0275654122 0.0053665522 0.0066086650
-0.0295126382 0.0120481299 0.0236552954
-0.0126794307 0.0563083403 -0.0444008112
0.0471101478 -0.0193898287 -0.0276322365
-0.0046773786 -0.0148434099 0.0357466936
0.0239238665 -0.0290191565 0.0083775520
-0.0497547127 -0.0586308613 -0.0286778212
-0.0510514341 -0.0117173158 0.0177776814
-0.0082132062 -0.0014785078 0.0312113762
0.0095049758 0.0155942552 0.0132770538
0.0660447031 0.0163075477 -0.0326441526
-0.0376122966 -0.0467531607 -0.0033336878
0.0024185032 0.0551652126 -0.0230349302
-0.0507625379 -0.0048783123 0.0232991576
-0.0731667578 -0.0015193500 0.0075469017
0.0428267196 -0.0156183271 -0.0141416788
-0.0366506390 0.0120675527 0.0220475793
0.0581009835 0.0090780212 -0.0244139433
-0.0164001081 0.0524929501 -0.0404936075
-0.0047102030 -0.0014811467 0.0296823382
-0.0537034757 -0.0624520034 -0.0329089165
0.0659570768 0.0413072370 -0.0312565565
-0.0452408530 -0.0471216589 -0.0112415552
0.0511584170 0.0665226206 -0.0342967510
0.0541411377 0.0302441027 -0.0196770430
-0.0185172111 -0.0213717073 0.0427919030
0.0023175068 -0.0484155677 0.0329429507
-0.0258184094 -0.0250370614 0.0294078588
0.0061815106 0.0628821701 -0.0333781242
0.0202426240 0.0019121232 0.0127899647
0.0023614368 0.0259777084 0.0085944533
0.0131663000 -0.0531820878 0.0065206289
-0.0335712470 -0.0393278860 0.0084841847
-0.0012035938 0.0052763186 0.0240361094
0.0619553849 0.0340123586 -0.0268056393
-0.0082318028 0.0018838878 0.0291498899
0.0060071093 0.0366418622 -0.0011571646
-0.0260660946 0.0154858530 0.0202558041
-0.0404879339 -0.0254103653 0.0149880648
-0.0048551774 0.0330383182 0.0028979778
-0.0082534011 -0.0453510284 0.0267556310
0.0213163439 0.0741889104 -0.0413115025
-0.0612257123 -0.0553248562 -0.0335291624
-0.0309386719 0.0374276638 -0.0228382349
0.0660685077 0.0485383943 -0.0330212116
-0.0012110057 0.0120931603 0.0199279785
0.0468227006 0.0479903072 -0.0212594271
-0.0746351853 -0.0190988258 -0.0123039484
-0.0569496788 -0.0477177165 -0.0240327120
-0.0671355352 -0.0225530695 -0.0098615885
0.0211082194 0.0663009062 -0.0308247805
-0.0346625261 -0.0725160912 -0.0233498812
0.0094794184 -0.0526690260 0.0161101222
-0.0118345870 0.0120621659 0.0224934816
-0.0472838096 0.0086771073 0.0220448375
0.0474845655 0.0702177212 -0.0359331369
-0.0081806667 -0.0081650559 0.0348184109
-0.0084576318 -0.0705725327 0.0041164160
-0.0454055443 -0.0508097857 -0.0148928165
-0.0519674979 0.0157963000 0.0002695322
0.0139908511 0.0790934935 -0.0587668419
-0.0051676705 0.0641783401 -0.0548356771
0.0314545110 0.0262730811 -0.0028151274
-0.0371698812 -0.0358957089 0.0083431602
-0.0381966680 -0.0615971424 -0.0187569857
-0.0257833581 0.0052417996 0.0307030082
0.0284727216 0.0624918640 -0.0269167423
0.0129586747 -0.0218166597 0.0229603052
-0.0606775582 -0.0441806950 -0.0243226290
0.0201869402 -0.0185691565 0.0155956745
-0.0499102324 -0.0659658536 -0.0318703651
0.0623832047 0.0593353026 -0.0339912176
0.0354755335 0.0441415794 -0.0141031742
-0.0415764637 -0.0506271273 -0.0112434626
-0.0434493423 -0.0082197813 0.0284767151
-0.0117967455 0.0086473795 0.0254898071
0.0238500796 -0.0083660781 0.0115235448
0.0058853785 -0.0557825267 0.0213329196
0.0353350379 0.0369625315 -0.0100047588
0.0464230925 -0.0015537762 -0.0124000311
-0.0155846952 0.0259484965 0.0097227693
0.0249256622 0.0701100901 -0.0343340635
-0.0159176439 0.0404944718 -0.0107815266
-0.0011998788 -0.0555112958 0.0260952115
-0.0751850381 -0.0263093431 -0.0197371244
-0.0296367239 0.0154958898 0.0196096897
0.0098521626 0.0588351190 -0.0252089500
-0.0503769964 -0.0014794460 0.0306677222
0.0739149749 0.0379823446 -0.0381424427
0.0132132471 0.0295845233 0.0028034449
0.0024607526 0.0672988370 -0.0464520454
-0.0151376175 -0.0281718709 0.0372555852
0.0387850180 0.0158697870 -0.0044615269
0.0242939629 -0.0434505977 -0.0074014664
0.0169721916 0.0403100662 -0.0061360598
0.0059739626 0.0295210481 0.0049668550
-0.0595274717 -0.0259279814 -0.0050060749
-0.0011800395 -0.0448693968 0.0370912552
0.0543528572 -0.0015733192 -0.0237234831
-0.0047851186 0.0189663097 0.0158415437
-0.0190458558 -0.0458450019 0.0161551237
0.0429738946 -0.0192010477 -0.0176883936
0.0098066470 0.0550115854 -0.0201635361
0.0502149649 0.0089961765 -0.0149295330
0.0699700266 0.0486490056 -0.0353947878
0.0508097447 0.0553848036 -0.0271391869
-0.0420673974 -0.0618579127 -0.0230739117
0.0438545235 -0.0268056933 -0.0389097929
-0.0047661872 -0.0558960848 0.0193391442
0.0245884582 0.0550005510 -0.0199573040
-0.0323858075 -0.0080938907 0.0430651903
-0.0191865843 0.0259655453 0.0090641975
0.0165604223 -0.0151000824 0.0192223787
0.0240347758 -0.0360658467 0.0036489964
-0.0713617876 -0.0262622032 -0.0179162025
0.0060688080 0.0475847386 -0.0125560760
0.0312867835 0.0088444445 0.0026534796
0.0282100923 0.0513277128 -0.0172125101
0.0024292395 0.0590502135 -0.0289856195
0.0507914200 -0.0122554218 -0.0267630816
-0.0048087868 -0.0666252896 0.0114687681
-0.0422462597 -0.0656793788 -0.0273842812
0.0584688224 0.0555908605 -0.0309906006
-0.0509807281 0.0087022698 0.0191290379
0.0356409587 0.0514136180 -0.0189288855
-0.0681784675 -0.0371217504 -0.0254845619
-0.0118314214 -0.0455379561 0.0227441788
0.0549097098 0.0665270537 -0.0343661308
0.0058378046 -0.0283811633 0.0301222801
-0.0225097947 0.0154822180 0.0204898119
0.0398011133 -0.0301826987 -0.0312794447
0.0247466639 0.0624789223 -0.0267024040
-0.0226006825 0.0189516284 0.0166148543
-0.0118661989 0.0154899741 0.0199905038
-0.0332255289 0.0155120492 0.0185693502
-0.0657586232 -0.0049432125 0.0107644796
-0.0081701428 -0.0382362269 0.0359849930
0.0023456938 -0.0662314445 0.0173199773
0.0582148470 0.0446742997 -0.0264496803
0.0579898246 0.0232368037 -0.0224264860
0.0165617168 -0.0185018182 0.0191426277
-0.0119143268 -0.0526652969 0.0161798000
0.0275472216 0.0019216314 0.0072808266
-0.0117791630 -0.0419713594 0.0268819332
0.0463639200 0.0124678733 -0.0110881329
0.0276841484 0.0192248877 0.0022213459
0.0509207547 0.0590748414 -0.0294179916
-0.0188918430 0.0120449876 0.0239153504
0.0278727971 -0.0363702290 -0.0047492981
0.0352913812 -0.0260244198 -0.0087312460
0.0175932460 0.0744062513 -0.0443830490
-0.0012628551 0.0439131856 -0.0088098049
0.0315314345 -0.0294211302 -0.0053229332
-0.0474721044 -0.0151162818 0.0181795359
-0.0654796064 -0.0015065833 0.0149440765
0.0659216344 0.0377124324 -0.0306953192
0.0434569381 0.0626375675 -0.0293288231
-0.0288891420 -0.0080859670 0.0439833403
-0.0534465984 -0.0550290011 -0.0279994011
-0.0081302365 -0.0214251801 0.0404086113
-0.0116363438 -0.0114707053 0.0381903052
-0.0754294619 -0.0299409926 -0.0230413675
-0.0552636795 -0.0187492091 0.0061116219
0.0240964610 0.0261738226 0.0010190010
-0.0083211586 -0.0525013246 0.0192446113
-0.0192728005 -0.0567287020 0.0047200918
-0.0185336880 -0.0114251431 0.0419616699
-0.0360427387 -0.0081368061 0.0380920172
-0.0545186289 -0.0048983321 0.0194326043
-0.0485749617 -0.0363597423 -0.0044599771
0.0540989786 0.0125619033 -0.0188713074
0.0204444528 0.0261323657 0.0026203394
0.0435808264 0.0663960278 -0.0323143005
-0.0445487015 0.0191891510 0.0041036606
0.0177352354 0.0786749721 -0.0531272888
-0.0116121443 -0.0314163603 0.0401064157
-0.0699306279 -0.0084446101 0.0024230480
-0.0115497299 -0.0246321559 0.0450483561
-0.0708251968 -0.0190605987 -0.0102903843
0.0058519407 -0.0115997298 0.0275106430
0.0281232372 0.0476521738 -0.0140031576
0.0624751970 0.0019955290 -0.0355362892
-0.0196630247 -0.0789574459 -0.0149421692
-0.0414073989 -0.0469318964 -0.0071692467
0.0319214538 0.0513690710 -0.0180388689
0.0542930290 0.0409628190 -0.0225800276
-0.0787556171 -0.0227386262 -0.0181318521
0.0359429158 0.0625414327 -0.0277373791
0.0130213099 -0.0423545539 0.0180009007
0.0168798156 0.0331480131 -0.0004471540
0.0242549460 0.0368078910 -0.0057380199
-0.0046500461 -0.0280679818 0.0407963991
0.0703310892 0.0128268721 -0.0408035517
-0.0254497081 -0.0080941813 0.0430315137
-0.0610402972 -0.0515866838 -0.0304150581
-0.0012828911 0.0514629707 -0.0199149847
-0.0193463154 -0.0604027398 0.0010159016
-0.0186468158 -0.0248596314 0.0362615585
-0.0224522036 -0.0353664793 0.0229452252
0.0466589183 0.0407662615 -0.0176284313
0.0205618571 -0.0467513688 -0.0032951832
-0.0520235226 -0.0292884596 -0.0008010864
-0.0575992242 0.0018869423 0.0273800492
0.0585744604 0.0592719801 -0.0328793526
0.0282903574 0.0550123751 -0.0201783180
0.0429615416 0.0442834273 -0.0173907280
-0.0084434617 -0.0670144409 0.0056872368
0.0355651528 0.0477786623 -0.0167175531
0.0541806929 0.0338033848 -0.0204329491
-0.0524077117 -0.0364932604 -0.0081439018
-0.0676504150 -0.0297805909 -0.0175744295
0.0138657624 0.0747232214 -0.0488624573
-0.0705757141 -0.0155034317 -0.0067448616
-0.0195054915 -0.0678687170 -0.0070044994
0.0024435511 0.0630960017 -0.0369180441
-0.0535828099 -0.0587404892 -0.0306026936
0.0351914056 -0.0224622730 -0.0058147907
-0.0047007822 -0.0048362506 0.0314228535
-0.0012185775 -0.0663383827 0.0157312751
0.0238652974 -0.0015136066 0.0108746886
-0.0011772945 -0.0414652117 0.0386126041
-0.0743376464 -0.0155273052 -0.0082817078
0.0238773394 0.0019163149 0.0103612542
-0.0525873192 -0.0401242077 -0.0115766525
-0.0550234132 -0.0152370064 0.0104073882
-0.0403382555 -0.0219146013 0.0185949802
-0.0048187799 0.0259510912 0.0096225739
-0.0262897443 -0.0426138267 0.0119918585
-0.0303161945 0.0297413971 -0.0025433302
0.0699361116 0.0271033645 -0.0348868370
-0.0047331951 0.0052690781 0.0254345536
-0.0084079159 0.0259509627 0.0096275210
-0.0418956950 -0.0580760390 -0.0189362764
-0.0368402191 0.0155357420 0.0170440078
0.0207445975 0.0475822650 -0.0125029087
-0.0740542933 -0.0119858682 -0.0044512749
0.0506186262 0.0480814800 -0.0232160091
0.0699225217 0.0414432622 -0.0346832275
0.0586968623 -0.0051805167 -0.0350677967
-0.0376012437 0.0262789521 -0.0030418634
0.0544415638 0.0481841341 -0.0254188776
0.0362847820 0.0739340708 -0.0377101898
0.0241924822 0.0332341827 -0.0030748844
0.0746571422 0.0129221482 -0.0486898422
-0.0120621752 -0.0636450276 0.0044732094
0.0316863731 0.0404783189 -0.0103745461
-0.0227063503 -0.0460335165 0.0121096969
-0.0305581000 0.0334753767 -0.0104302168
0.0580018759 0.0196969118 -0.0226420164
-0.0784857571 -0.0191434287 -0.0146533251
0.0023249709 -0.0082169399 0.0288059115
0.0619407147 0.0304460283 -0.0265592337
-0.0527996607 -0.0438058451 -0.0156348944
0.0166433267 0.0053276774 0.0141167641
-0.0599527657 -0.0331299193 -0.0121492147
0.0100294426 0.0708186328 -0.0448607206
-0.0046922732 -0.0081807915 0.0329948664
0.0739119500 0.0415788665 -0.0380994081
0.0705552399 0.0092484299 -0.0441613197
-0.0695966184 -0.0049618245 0.0071697831
-0.0292919297 0.0052410327 0.0308511257
-0.0154632395 0.0189404730 0.0172024369
0.0388706513 0.0228844434 -0.0067217350
-0.0567499995 -0.0440141484 -0.0204626322
-0.0081662945 -0.0114921955 0.0364115834
-0.0564887114 -0.0402915031 -0.0157910585
0.0097362939 0.0475758314 -0.0123648643
0.0094119459 -0.0421134196 0.0235894918
-0.0502700023 0.0018777390 0.0327125788
-0.0222795550 0.0052438546 0.0303061008
-0.0430178419 -0.0014667168 0.0380432010
-0.0155967204 -0.0564859547 0.0089821815
-0.0048358194 0.0294768158 0.0064743757
-0.0404892415 0.0155681660 0.0149565935
-0.0119048944 0.0189457107 0.0169265866
0.0659069791 0.0341322981 -0.0304632187
-0.0636643097 -0.0296417642 -0.0128427744
0.0023273190 -0.0048565390 0.0275043845
-0.0194927249 0.0368304737 -0.0063612461
0.0463639162 0.0089630261 -0.0110881329
0.0095423125 0.0225285999 0.0091382265
-0.0150493439 -0.0246931612 0.0426918268
0.0700481758 0.0199612472 -0.0365655422
-0.0189820286 -0.0422954299 0.0193712115
-0.0185865369 -0.0081263920 0.0392988324
0.0093929181 -0.0352666751 0.0256988406
-0.0516616479 -0.0221946072 0.0061150789
-0.0383602083 -0.0654040948 -0.0230733156
-0.0410894044 -0.0396450683 0.0004937649
0.0129781775 -0.0082807103 0.0214160681
-0.0085095447 0.0366592966 -0.0016381741
0.0023722379 0.0330478325 0.0026078224
-0.0047830269 -0.0594838373 0.0162279606
0.0023523546 0.0190083273 0.0136283040
0.0466771424 -0.0121499449 -0.0180323124
-0.0049530342 0.0477070697 -0.0151813030
0.0131242443 0.0190800466 0.0098505616
-0.0299272630 0.0225061867 0.0101371408
0.0130762625 0.0121690081 0.0136497617
0.0058437143 -0.0183141008 0.0290305018
-0.0325570293 -0.0014666698 0.0380703211
0.0387338139 0.0054168724 -0.0031100512
-0.0084351609 0.0294729155 0.0066073537
0.0062200082 0.0669181496 -0.0404906273
-0.0048302449 -0.0703328028 0.0075043440
0.0099544795 0.0666665733 -0.0365509987
-0.0415707529 0.0264877137 -0.0111057758
0.0058973567 0.0087023480 0.0191199183
0.0314132050 0.0227665734 -0.0014683008
0.0744108781 0.0165024232 -0.0451899767
-0.0624861121 -0.0118618393 0.0058150291
-0.0195876695 -0.0751575157 -0.0111451149
0.0398126654 0.0663494170 -0.0315843821
0.0783560872 0.0237955358 -0.0473291874
0.0130048804 -0.0014990623 0.0193017721
0.0023154600 -0.0450098440 0.0340773463
0.0580235831 0.0161582120 -0.0230300426
0.0542580001 0.0019720125 -0.0219105482
0.0202309694 -0.0288724676 0.0133771300
-0.0343597904 -0.0613411181 -0.0145186186
0.0130526107 -0.0458744802 0.0155224800
0.0312312488 -0.0049758344 0.0044640303
0.0503980778 0.0372772627 -0.0186885595
-0.0191439260 -0.0495031327 0.0112137198
0.0360558033 0.0663140416 -0.0310304165
0.0059744874 -0.0636197031 0.0048698187
-0.0151935751 -0.0014740236 0.0338095427
-0.0049903085 0.0515707172 -0.0220677853
-0.0306825694 -0.0648558736 -0.0144883394
0.0503683612 -0.0015635765 -0.0180784464
0.0621666312 0.0484140925 -0.0303536654
-0.0117048202 -0.0350104496 0.0327683687
0.0464850888 -0.0050702677 -0.0137745142
-0.0666193962 -0.0154317478 -0.0021297932
0.0313723758 0.0192696620 -0.0001372099
-0.0013233541 0.0634236336 -0.0423418283
0.0541019477 0.0231583100 -0.0189280510
-0.0234268960 -0.0792423785 -0.0186108351
-0.0157854017 -0.0675747767 -0.0026375055
0.0129637821 -0.0286031608 0.0225559473
0.0389040001 0.0263970029 -0.0076018572
0.0240269136 0.0191914197 0.0039842129
0.0320036560 0.0550412983 -0.0207189322
-0.0485827178 0.0193547513 -0.0046191216
-0.0324319340 -0.0047829375 0.0417195559
-0.0122291930 0.0404138751 -0.0087511539
0.0279332530 0.0368530191 -0.0069831610
0.0503515080 0.0337148346 -0.0177326202
0.0314361416 -0.0258557536 -0.0022161007
-0.0046656155 -0.0214810148 0.0379199982
0.0166595485 0.0087541426 0.0131177902
0.0058578285 -0.0082375044 0.0264228582
-0.0412572920 -0.0432845019 -0.0035520792
-0.0450650230 -0.0434480868 -0.0073432922
0.0430456698 0.0479044989 -0.0194180012
0.0275878496 0.0088174678 0.0057796240
-0.0267891567 -0.0608544275 -0.0064616203
0.0780672953 0.0309408735 -0.0434250832
-0.0627222434 -0.0153664229 0.0020756721
0.0502015129 0.0125109470 -0.0146534443
-0.0088019092 0.0557543933 -0.0340471268
0.0023330073 0.0018921690 0.0243516564
0.0350814834 0.0193165746 -0.0026081800
0.0391135439 -0.0226264559 -0.0131323338
-0.0227912366 -0.0496394299 0.0084905028
0.0502250753 0.0230732560 -0.0151371956
-0.0121087506 -0.0673443899 0.0007853508
0.0312327091 -0.0015247528 0.0044164658
-0.0156609342 0.0295192637 0.0050276518
-0.0378975421 -0.0541121066 -0.0108621120
-0.0012557604 0.0402601138 -0.0048775673
-0.0365144163 -0.0183784124 0.0256429315
-0.0082761766 0.0086582424 0.0242310166
0.0427551195 0.0335405059 -0.0124163628
0.0203081649 0.0122192930 0.0094875693
-0.0121413851 -0.0709910914 -0.0017986298
0.0400693715 0.0739800334 -0.0383597612
0.0058875927 0.0052924328 0.0209238529
-0.0344980583 -0.0651153773 -0.0185520649
0.0059444341 0.0224997904 0.0104222298
-0.0268957987 -0.0645949319 -0.0104020834
-0.0417123437 -0.0543077029 -0.0145179033
0.0252315719 0.0782481879 -0.0473766327
0.0241273567 -0.0396765061 -0.0002982616
0.0166128054 -0.0356183276 0.0159964561
0.0463856608 0.0019541662 -0.0115702152
-0.0345026851 0.0337461345 -0.0186871290
-0.0048439982 -0.0739620477 0.0049633980
-0.0157258641 0.0330996029 0.0010291338
0.0060899002 0.0512896888 -0.0164529085
-0.0702513233 -0.0119578810 -0.0021346807
-0.0150958681 -0.0114509361 0.0398266912
-0.0011864385 -0.0483854562 0.0335445404
0.0781739131 0.0273617208 -0.0448664427
0.0203735102 0.0191494487 0.0061949492
-0.0289779846 -0.0047862139 0.0410867333
-0.0082221059 -0.0418271236 0.0302248001
-0.0046844110 -0.0115159247 0.0344474316
-0.0184627660 -0.0180007610 0.0455352068
-0.0012489568 0.0366400294 -0.0011066198
-0.0682886988 -0.0407418385 -0.0271358490
-0.0441902988 0.0156133212 0.0120495558
0.0093883770 -0.0318723023 0.0262022614
0.0545311905 0.0518241823 -0.0271317959
-0.0347898677 -0.0763389468 -0.0270645618
-0.0082879309 -0.0489168242 0.0229279399
-0.0359103344 -0.0047836262 0.0415865183
0.0238922983 -0.0255466569 0.0097234845
0.0548570901 0.0628811121 -0.0333604813
0.0425956994 0.0194298457 -0.0085746050
-0.0374504142 -0.0430907272 0.0009390116
-0.0436481610 0.0086596413 0.0240688324
0.0275234375 -0.0049566994 0.0081596971
0.0502083488 0.0195479151 -0.0147937536
-0.0613441989 0.0018929515 0.0238981843
0.0060241604 0.0402374752 -0.0043072701
-0.0556505248 -0.0258192196 -0.0008049011
0.0094024511 -0.0116343852 0.0246421099
-0.0530305207 -0.0475319959 -0.0200471878
-0.0117642349 0.0052554635 0.0280639529
-0.0012152072 0.0155271161 0.0175993443
0.0391318575 0.0406069756 -0.0136157274
-0.0223010723 -0.0284026843 0.0293887258
0.0202092957 -0.0254237987 0.0144692063
0.0387318134 0.0019394738 -0.0030572414
-0.0159226228 -0.0786581337 -0.0110881329
0.0324095972 0.0700845048 -0.0339539051
0.0387420617 -0.0015381186 -0.0033278465
0.0425870232 -0.0050422614 -0.0083655119
-0.0554554500 -0.0222716145 0.0026829243
-0.0197925214 0.0444593094 -0.0214669704
-0.0601940714 -0.0367853194 -0.0162020922
-0.0574526861 -0.0588785149 -0.0330262184
0.0094405487 0.0018989565 0.0204189420
0.0361671522 0.0701063648 -0.0342786312
-0.0222133007 0.0018770170 0.0331308842
0.0467362478 0.0443676524 -0.0193427801
-0.0679106414 -0.0334356502 -0.0214725733
-0.0046455166 -0.0313662887 0.0416333079
-0.0082511688 0.0052609565 0.0270031095
-0.0437557101 -0.0150618386 0.0216844678
-0.0542401932 0.0052743787 0.0244107842
-0.0047706217 0.0155128185 0.0185198188
-0.0011772689 -0.0347981192 0.0386268497
-0.0256251879 -0.0014692981 0.0365475416
-0.0338301137 -0.0465543494 0.0009328127
-0.0384536572 -0.0691163242 -0.0255397558
-0.0084960600 -0.0743410289 -0.0001432896
0.0058648419 -0.0048688473 0.0251271725
0.0101140784 0.0751039460 -0.0542427301
-0.0434324555 0.0052513885 0.0288510323
-0.0334023982 0.0190124772 0.0134097338
0.0058466578 -0.0419021212 0.0284866691
-0.0299863890 -0.0427770279 0.0082094073
-0.0641768351 -0.0369577333 -0.0209591389
0.0246623177 0.0587153658 -0.0231063366
-0.0256428793 -0.0181838013 0.0358937979
0.0059588533 0.0259993523 0.0077583194
0.0511318929 -0.0159229413 -0.0337523222
-0.0298772249 -0.0391975120 0.0117685199
0.0023792246 0.0366457552 -0.0012645721
0.0129676629 -0.0150530767 0.0222486258
-0.0778572857 -0.0120112551 -0.0065525770
-0.0123814158 0.0479690917 -0.0208041668
0.0473601334 0.0664509535 -0.0331745148
-0.0011910249 -0.0081979847 0.0310025215
0.0631937236 -0.0052454271 -0.0476043224
0.0023920750 0.0438949391 -0.0083869696
0.0350084230 -0.0119378548 -0.0004769564
0.0659071058 0.0305606276 -0.0304651260
-0.0187760834 -0.0317560285 0.0297481418
-0.0304430481 -0.0573779382 -0.0066791773
-0.0121980635 -0.0782851949 -0.0062863827
-0.0012071187 -0.0591301918 0.0220823884
-0.0125088505 0.0520124957 -0.0308942795
-0.0012200742 0.0189841520 0.0149017572
-0.0233414564 -0.0719229952 -0.0149681568
-0.0409391597 -0.0360489748 0.0041143894
-0.0013051337 0.0592357367 -0.0322430134
-0.0271142609 -0.0721710995 -0.0184743404
0.0351235792 0.0228197016 -0.0038362741
-0.0264365468 0.0260301828 0.0065674782
0.0275377352 -0.0118398955 0.0076313615
0.0464845337 0.0300705601 -0.0137622356
0.0243067387 0.0403819233 -0.0079461336
0.0622990057 0.0055694422 -0.0325770378
0.0058389683 -0.0351141468 0.0299072862
0.0322060250 0.0625160336 -0.0273168087
0.0547154397 -0.0087300399 -0.0306532383
-0.0490988418 -0.0473067798 -0.0152142048
-0.0629503503 -0.0188944098 -0.0015366077
0.0349879265 -0.0084644752 0.0001209974
-0.0634261668 -0.0260332320 -0.0090715885
0.0208090022 0.0512544177 -0.0157481432
-0.0381123461 0.0301518105 -0.0165314674
0.0582911260 0.0482957214 -0.0278135538
-0.0083454782 0.0189528819 0.0165488124
-0.0471574701 -0.0082529038 0.0246383548
-0.0560753532 -0.0330069922 -0.0084004402
-0.0406618007 -0.0289481338 0.0107982159
0.0432366058 0.0552178733 -0.0240192413
0.0023999743 0.0475944877 -0.0127652884
0.0350162722 0.0123424428 -0.0007059574
0.0095629925 0.0260229763 0.0068458319
0.0094276909 -0.0455798991 0.0218441486
-0.0188328940 -0.0352236629 0.0268856287
0.0023164041 -0.0282804761 0.0335540175
0.0466117673 0.0372009501 -0.0165829659
-0.0302033909 -0.0500076041 0.0011345148
-0.0191899184 -0.0530549884 0.0088962317
-0.0329821482 -0.0217558835 0.0256690979
-0.0553701185 0.0122830700 0.0042085648
-0.0710897967 -0.0226470605 -0.0140507221
0.0097652199 0.0512455702 -0.0155713558
0.0094008287 -0.0386793502 0.0248219371
0.0662893429 0.0091824755 -0.0365183353
0.0425399058 0.0124212634 -0.0072300434
0.0544986725 -0.0051362095 -0.0265103579
0.0316685997 -0.0330527239 -0.0097950697
0.0389041863 -0.0155168204 -0.0076067448
-0.0439045280 -0.0185161997 0.0183851123
0.0389882773 -0.0190517846 -0.0098261833
0.0437113754 0.0701858923 -0.0354602337
-0.0153156156 0.0086404420 0.0262937546
0.0023357677 0.0052826069 0.0228216052
0.0168400276 0.0296080001 0.0020031929
-0.0223622005 -0.0318532735 0.0267825127
0.0276246388 0.0122805135 0.0044201612
0.0785267204 0.0202093851 -0.0496358871
-0.0684746429 -0.0444222577 -0.0299211740
0.0023194631 -0.0182604082 0.0318586230
0.0240553655 0.0226714574 0.0027711391
0.0659329593 0.0234263521 -0.0308746099
-0.0226909146 0.0224471670 0.0127677321
0.0364276357 0.0778400749 -0.0418773890
0.0699785873 0.0235306490 -0.0355231762
-0.0083749071 0.0224355254 0.0132865906
-0.0584404282 -0.0083511667 0.0132514834
-0.0188332256 0.0086354790 0.0268688798
0.0171234719 0.0512396209 -0.0154525042
0.0244988352 0.0512738414 -0.0161362886
-0.0722069219 -0.0408526361 -0.0299270153
-0.0342273004 -0.0576043092 -0.0106537342
0.0174832717 0.0703306198 -0.0376104116
0.0165643282 -0.0219059233 0.0189818144
-0.0046709087 -0.0181639008 0.0369420052
-0.0155222015 0.0224291366 0.0135713816
-0.0119469836 0.0224286281 0.0135940313
0.0129617834 -0.0184340142 0.0227141380
-0.0117398072 -0.0384738818 0.0299981236
0.0540789552 0.0160876699 -0.0184886456
0.0023160856 -0.0349755771 0.0337305665
-0.0548218340 -0.0117628155 0.0140115023
0.0431879200 -0.0228443947 -0.0228459835
-0.0466862544 0.0018749794 0.0343114734
0.0428980552 0.0406960957 -0.0158607960
0.0202262271 -0.0015088752 0.0136161447
0.0132405804 0.0331123918 0.0006390810
-0.0219564270 -0.0113995187 0.0440826416
0.0312408153 0.0019270312 0.0041520596
0.0502534881 0.0054821642 -0.0157203674
0.0166434702 -0.0391046479 0.0141080022
0.0708953366 0.0056558005 -0.0492558479
0.0277693067 0.0262241587 -0.0009253025
0.0241451375 0.0296977684 -0.0010563135
0.0210282709 0.0624845996 -0.0267964602
-0.0116576916 -0.0081505440 0.0365000367
0.0250381697 0.0740346014 -0.0391308069
0.0130603462 0.0087386770 0.0149100423
-0.0265922043 0.0296428390 0.0008158684
0.0129712429 -0.0320112482 0.0219651461
0.0133134509 0.0402701609 -0.0051306486
0.0059171682 -0.0595302433 0.0154597163
-0.0047560460 0.0120776389 0.0212127566
-0.0308874901 -0.0723617971 -0.0211694241
-0.0047199531 -0.0486689210 0.0278809667
-0.0363739058 -0.0149427485 0.0293514132
-0.0470216274 0.0052587618 0.0274268985
0.0583017953 0.0019825296 -0.0280042887
-0.0341028571 -0.0539067388 -0.0070235729
-0.0259965789 -0.0319830664 0.0228244662
0.0750336871 0.0093336878 -0.0540411472
-0.0329339392 0.0086336965 0.0270754099
0.0023303614 -0.0589045286 0.0258181691
0.0289400462 0.0780113041 -0.0441845655
0.0541286021 0.0090350769 -0.0194374323
-0.0048017367 0.0224470869 0.0127712488
0.0023242866 -0.0553353094 0.0291851163
0.0096660210 0.0402481034 -0.0045750141
-0.0592977367 -0.0223575588 -0.0011476278
-0.0012719997 0.0476463549 -0.0138783455
0.0504638292 0.0408619232 -0.0200382471
-0.0117344595 0.0018816929 0.0304215550
-0.0597326271 -0.0295129325 -0.0084518194
-0.0692066401 -0.0015104355 0.0127120614
-0.0227992348 0.0259892251 0.0081495047
0.0701657087 0.0163958054 -0.0383261442
0.0352711417 0.0334003009 -0.0081408024
-0.0080997860 -0.0279803239 0.0437840819
-0.0444216654 -0.0290619191 0.0069200993
0.0058406042 -0.0216675736 0.0296050906
-0.0459889062 -0.0621449724 -0.0278260708
-0.0291729905 -0.0148592191 0.0347289443
0.0313094519 0.0123107862 0.0019143820
-0.0494956672 -0.0547807924 -0.0233602524
-0.0157264415 -0.0638672337 0.0009934902
0.0581825599 0.0055347285 -0.0258724689
0.0317533910 0.0440749750 -0.0125595331
0.0243622195 0.0439779870 -0.0103116035
0.0392908305 0.0478296392 -0.0178115368
0.0202567261 0.0053382269 0.0120792985
0.0095902374 0.0295545273 0.0038257837
-0.0224260725 0.0120432479 0.0240593553
-0.0046435124 -0.0346757360 0.0420035124
-0.0562685616 -0.0366277620 -0.0118548870
0.0130385431 0.0053146319 0.0166364312
0.0396931134 0.0625832155 -0.0284290314
-0.0651932731 0.0019010026 0.0192333460
0.0426188037 0.0229385085 -0.0091314316
0.0503130108 0.0301638637 -0.0169422626
-0.0291935448 0.0018754156 0.0340588093
-0.0234376490 0.0408234596 -0.0190693140
0.0166199710 0.0019073507 0.0155552030
0.0060443627 0.0438799597 -0.0080397129
0.0168393888 -0.0499621592 0.0020424128
-0.0118747046 -0.0490975529 0.0193170309
-0.0081414226 -0.0181216300 0.0391686559
0.0205302648 0.0331892073 -0.0017033815
-0.0361939631 0.0018753432 0.0341007113
0.0063351877 0.0756366029 -0.0617702007
0.0059913578 0.0330758654 0.0017529726
0.0349740200 -0.0049962210 0.0005266666
-0.0120428074 0.0294905361 0.0060067177
-0.0152714858 0.0052505578 0.0290114284
-0.0084711965 0.0330476724 0.0026128292
-0.0115634650 -0.0213454794 0.0439608097
-0.0789901987 -0.0263460632 -0.0211554766
0.0659114867 0.0269906949 -0.0305346251
-0.0259064771 -0.0284975991 0.0261538029
-0.0011964760 -0.0014840827 0.0279811621
-0.0083495649 -0.0560808070 0.0160957575
0.0275556128 -0.0187328998 0.0069707632
-0.0367747620 -0.0253124163 0.0187715888
0.0287710279 0.0739502907 -0.0379393101
-0.0616632588 -0.0014998496 0.0188456178
-0.0668998584 -0.0189854335 -0.0063310862
-0.0047442620 0.0086655002 0.0233898759
0.0173179228 0.0625227243 -0.0274275541
0.0433410443 0.0589106940 -0.0265359879
0.0425537415 -0.0015454289 -0.0075634718
0.0096379304 0.0366528779 -0.0014611483
0.0136788320 0.0665075853 -0.0340613127
-0.0369101018 -0.0288189985 0.0151995420
-0.0085141025 -0.0779634342 -0.0021433830
-0.0639140829 -0.0332823694 -0.0167981386
-0.0297845807 0.0189862903 0.0147891045
-0.0011940507 -0.0519619696 0.0293254852
0.0058417981 -0.0384982377 0.0293844938
-0.0334600545 -0.0357730351 0.0117278695
-0.0116165057 -0.0147810550 0.0397610664
-0.0590917356 -0.0188213382 0.0023123026
0.0204134844 0.0226398278 0.0041807890
0.0351785086 0.0263410006 -0.0054385662
-0.0269946326 0.0371092930 -0.0140540600
-0.0400511883 0.0086471811 0.0255128145
-0.0360041074 -0.0014648727 0.0391116142
0.0093857264 -0.0284875575 0.0264960527
-0.0332145691 -0.0287107490 0.0188890100
-0.0230590310 0.0332293287 -0.0029269457
-0.0154149504 0.0154870888 0.0201762915
0.0165757965 -0.0287287477 0.0182755589
0.0201956481 -0.0083347242 0.0151568651
0.0546276607 0.0554830506 -0.0289756060
-0.0573237389 -0.0551745929 -0.0307207108
0.0201931447 -0.0219889116 0.0152829885
-0.0221467204 -0.0215247776 0.0359694958
-0.0647468120 -0.0479950942 -0.0299851894
-0.0398491919 -0.0082033519 0.0303806067
-0.0493203849 -0.0510534905 -0.0197620392
0.0350484140 0.0158260148 -0.0016435385
0.0358351208 0.0588000268 -0.0245928764
-0.0267764349 0.0333298221 -0.0059915781
-0.0229288377 0.0295897909 0.0026239157
0.0095206732 0.0190480314 0.0115369558
-0.0305611622 -0.0611001849 -0.0105301142
0.0541186221 0.0266984683 -0.0192466974
0.0093899975 -0.0183712039 0.0260225534
-0.0257157385 -0.0215868801 0.0332016349
0.0661476851 0.0127479983 -0.0342749357
-0.0272356458 -0.0795801282 -0.0229595900
-0.0046603698 -0.0247916058 0.0388891697
-0.0455943383 -0.0545517020 -0.0190783739
-0.0084231272 -0.0634235591 0.0079413056
-0.0221506096 -0.0014705819 0.0358036757
-0.0187228881 0.0018782293 0.0324284434
0.0244293902 0.0476136021 -0.0131754875
0.0619569942 0.0197764710 -0.0268326998
0.0203004815 -0.0358402058 0.0098746419
0.0313335173 0.0157829393 0.0011297464
0.0699189678 0.0306828264 -0.0346300602
0.0129596479 -0.0252059717 0.0228832960
-0.0466129109 -0.0014705588 0.0358170867
0.0351165421 -0.0189341698 -0.0036308765
0.0058387355 -0.0250230189 0.0299503207
0.0129737416 -0.0116691161 0.0217673182
0.0058531445 -0.0453262106 0.0272881985
-0.0775019825 -0.0084825438 -0.0019727945
-0.0228780638 -0.0532747544 0.0047886372
-0.0402534455 0.0120845726 0.0206388235
-0.0119936671 0.0259439703 0.0098976493
-0.0152062485 -0.0316484421 0.0330290198
-0.0083824610 -0.0597120933 0.0124492645
0.0742330253 0.0200769957 -0.0426623821
0.0313118137 -0.0188303553 0.0018373728
-0.0273750667 0.0411823839 -0.0281112194
-0.0049016201 0.0402920581 -0.0056823492
0.0619945712 0.0162270814 -0.0274637938
0.0167384539 0.0191102736 0.0082584620
0.0619882233 0.0375914462 -0.0273572206
0.0388246477 0.0193716157 -0.0055074692
-0.0370531976 -0.0323569514 0.0114228129
0.0129910121 -0.0048933239 0.0203998685
0.0354599319 -0.0296653900 -0.0136480331
0.0096988203 0.0438873433 -0.0082108974
-0.0011817797 -0.0248631202 0.0361267328
-0.0011831742 -0.0215385910 0.0353537798
0.0427061617 0.0299964547 -0.0112364292
0.0023228470 -0.0115698595 0.0299830437
-0.0081530698 -0.0148103135 0.0378775001
-0.0226177331 -0.0424457267 0.0158878565
0.0275320578 -0.0015188422 0.0078411102
0.0096393777 -0.0605620556 -0.0016214848
-0.0513814129 0.0121953310 0.0114709735
-0.0373268388 -0.0394979268 0.0042005777
-0.0158572625 -0.0713636130 -0.0070630312
-0.0193753615 0.0331480280 -0.0004476309
0.0661415681 0.0521768518 -0.0341781378
0.0275252350 -0.0083956793 0.0080932379
-0.0189648177 0.0154861249 0.0202383399
-0.0012255056 0.0224668290 0.0118913651
-0.0346633978 -0.0689706355 -0.0233752728
0.0238988511 0.0053518713 0.0094441175
0.0165759753 -0.0083079059 0.0182645917
-0.0152316829 0.0018798962 0.0314626694
0.0023433052 0.0121086724 0.0186439753
-0.0541347861 -0.0014869921 0.0262953639
0.0580913052 0.0374785028 -0.0242408514
0.0277216155 0.0227148533 0.0008369684
-0.0734016746 -0.0049763154 0.0043711662
0.0353995562 0.0405383483 -0.0118868351
-0.0717521980 -0.0335009731 -0.0234645605
0.0167438760 -0.0462285355 0.0079246163
0.0130192991 0.0019028549 0.0181601048
-0.0047203912 0.0018862175 0.0278000236
-0.0483982526 -0.0327588245 -0.0008324385
-0.0082960706 0.0120678172 0.0220257044
-0.0231410582 -0.0643409118 -0.0064241886
-0.0460275710 -0.0657623336 -0.0286833048
-0.0187768750 0.0052469498 0.0297082663
0.0623283274 0.0557020865 -0.0330694914
-0.0546429418 -0.0083170068 0.0172099471
0.0058719539 -0.0014912763 0.0238131285
0.0673525631 -0.0016244604 -0.0533553362
-0.0089531643 0.0602934361 -0.0508140326
-0.0261892453 0.0189688969 0.0157053471
-0.0258708410 0.0086302869 0.0274705291
0.0428205766 0.0371071026 -0.0139936209
-0.0328059606 0.0052412525 0.0308086872
0.0286630634 0.0700842366 -0.0339499712
0.0023394884 0.0086881993 0.0207594633
-0.0325393900 -0.0114659378 0.0385849476
-0.0120923072 0.0330649018 0.0020873547
-0.0604693294 -0.0404913351 -0.0208252668
-0.0046729431 -0.0415535122 0.0365661979
0.0472360253 0.0627036616 -0.0304229259
-0.0646551177 -0.0443623737 -0.0285332203
0.0659735724 0.0198654160 -0.0315177441
0.0501998030 0.0160275530 -0.0146182775
0.0425238982 0.0054362072 -0.0068442822
-0.0410883948 0.0227220058 0.0005180836
-0.0300952550 -0.0463806614 0.0046600103
0.0464068614 0.0230037719 -0.0120401382
0.0058617205 -0.0487778895 0.0257037878
-0.0609564371 -0.0479494929 -0.0290066004
-0.0719805583 -0.0371661671 -0.0267100334
0.0094884243 0.0121513456 0.0151118040
0.0463644229 0.0159728918 -0.0110993385
0.0023475587 0.0155475084 0.0162864923
0.0667877644 0.0020108460 -0.0444113016
-0.0220930297 -0.0048008570 0.0382586122
0.0239863638 0.0157117471 0.0057129860
-0.0620143190 -0.0049301558 0.0132862329
0.0319043212 -0.0368316472 -0.0174802542
0.0278178211 0.0297465194 -0.0027179718
-0.0756282285 -0.0335752070 -0.0257283449
0.0622435808 0.0520501249 -0.0316461325
-0.0578830279 -0.0014933469 0.0226134062
-0.0293979179 0.0086309342 0.0273955464
-0.0115592247 -0.0279652867 0.0442965627
0.0503046475 0.0019631414 -0.0167706013
0.0206889566 0.0439515710 -0.0096994638
-0.0748881474 -0.0226845946 -0.0157235861
0.0208841488 0.0549779311 -0.0195344687
-0.0225357041 -0.0388951674 0.0193851590
-0.0255486965 -0.0047950824 0.0393738747
0.0275836196 -0.0221986286 0.0059359074
0.0426410474 -0.0085489443 -0.0096673965
-0.0011847012 -0.0182101205 0.0345074534
-0.0011865862 -0.0148788886 0.0334626436
0.0202045534 -0.0049227932 0.0147082210
0.0550663024 -0.0123834349 -0.0373589993
-0.0362610035 -0.0115414895 0.0323312879
0.0024093804 0.0513660572 -0.0179786682
0.0699017495 0.0378456935 -0.0343720913
0.0131000327 0.0156176994 0.0117676854
0.0173966251 0.0663934723 -0.0322743654
0.0133999493 0.0475578755 -0.0119795799
-0.0288950279 -0.0114030382 0.0437914133
-0.0309560765 -0.0760673955 -0.0234055519
0.0584559701 -0.0015854649 -0.0307607651
-0.0232126806 0.0369434319 -0.0094778538
-0.0461558290 -0.0695193112 -0.0315268040
-0.0190279484 0.0189432260 0.0170574784
-0.0012416998 0.0330377407 0.0029156208
0.0463785753 0.0194837339 -0.0114130974
-0.0219962671 -0.0180605836 0.0423840880
-0.0512304269 -0.0151756611 0.0143567324
0.0201875642 -0.0151569042 0.0155642629
0.0312617905 0.0053828117 0.0034682751
0.0792398825 0.0130500505 -0.0592767000
-0.0586335994 -0.0118111949 0.0100070238
-0.0297558606 -0.0356281511 0.0157254338
-0.0232348684 -0.0680988729 -0.0104237795
0.0024853430 0.0718431324 -0.0600813627
0.0465660281 -0.0085998708 -0.0155689716
0.0023847776 0.0402388722 -0.0043424368
-0.0011766751 -0.0381182954 0.0389559865
0.0390029401 0.0334682576 -0.0102131367
0.0463646874 0.0054582683 -0.0111051798
0.0058786664 0.0018952388 0.0225729942
-0.0673774704 -0.0261475034 -0.0134856701
0.0093944101 -0.0150020532 0.0255334377
-0.0153047899 -0.0385944620 0.0269604921
0.0321013071 0.0587607212 -0.0239027739
-0.0333268605 -0.0322195329 0.0156133771
-0.0121628251 -0.0745898560 -0.0034961700
0.0664884672 0.0056061759 -0.0396715403
0.0278829690 0.0333014168 -0.0051251650
-0.0081104878 -0.0246955957 0.0425977707
-0.0644322410 -0.0406572036 -0.0250036716
0.0393052772 -0.0262693632 -0.0181927681
-0.0330878571 -0.0252136830 0.0225854516
-0.0547547415 0.0087360796 0.0152110457
-0.0122936117 0.0441307351 -0.0138517618
-0.0572297946 -0.0515179113 -0.0290410519
0.0388421677 -0.0120042153 -0.0059698820
-0.0201686844 0.0488832071 -0.0404207706
0.0279866178 0.0404219702 -0.0089551210
0.0238598417 -0.0049414379 0.0111072659
-0.0407853760 -0.0324750841 0.0078202486
-0.0532273054 -0.0512560047 -0.0238082409
0.0312366933 -0.0084285289 0.0042865276
-0.0154285440 -0.0456966273 0.0193392038
0.0239241961 0.0087951701 0.0083635449
0.0023181823 -0.0216010846 0.0325685143
-0.0476454273 -0.0185876507 0.0146215558
0.0349828228 0.0019337315 0.0002698898
0.0061166035 0.0550770126 -0.0213863850
-0.0085998885 0.0440358594 -0.0116529465
-0.0219191555 -0.0146892434 0.0456718206
0.0094690677 0.0087184189 0.0172575116
-0.0335918069 0.0225567296 0.0078845024
0.0239498075 0.0122460648 0.0072715878
0.0023160724 -0.0316251963 0.0337378979
0.0238533635 -0.0186491255 0.0113834739
0.0590876974 -0.0088284360 -0.0420556068
-0.0449113622 -0.0398209393 -0.0039366484
-0.0153686991 -0.0421377905 0.0230246782
-0.0237264652 0.0448871590 -0.0313830376
0.0740173534 0.0272253118 -0.0395972729
0.0093865423 -0.0217393599 0.0264055729
0.0425301269 0.0089277001 -0.0069943666
-0.0396650322 0.0018741044 0.0348184705
0.0438205078 0.0739609599 -0.0380901098
0.0387450606 0.0088967420 -0.0034070015
-0.0150197558 -0.0180201493 0.0445140004
-0.0013525388 0.0680693164 -0.0585175753
-0.0196394715 0.0406125188 -0.0137553215
0.0357336476 0.0550901927 -0.0216327906
0.0507089570 0.0517209992 -0.0250703096
-0.0438981801 0.0121101001 0.0185258389
-0.0047931448 -0.0630137622 0.0143586993
-0.0407568514 0.0191055425 0.0085076690
0.0431379341 0.0515493825 -0.0216414928
0.0277599953 -0.0327505842 -0.0005812645
0.0620940290 0.0447901338 -0.0291342735
0.0095266532 -0.0563782044 0.0108740926
0.0238690451 -0.0220914036 0.0107148886
0.0168120228 0.0261036959 0.0037277937
0.0130969770 -0.0494632982 0.0120096207
0.0165671743 -0.0253115110 0.0188065171
-0.0339630209 -0.0502117537 -0.0029443502
-0.0468887761 -0.0048428196 0.0301541090
0.0316207446 0.0368983820 -0.0082348585
0.0313654020 -0.0223297849 0.0000902414
-0.0661703274 -0.0084258486 0.0045971870
0.0425654426 0.0159223508 -0.0078455210
0.0137602435 0.0705256164 -0.0405074358
-0.0399049968 -0.0115813045 0.0290357471
0.0134944580 0.0549740903 -0.0194627047
-0.0160182621 0.0442656241 -0.0169780254
0.0201900546 -0.0117455730 0.0154387355
-0.0482175350 -0.0291805342 0.0028773546
0.0760007426 0.0057517360 -0.0677846670
0.0205787588 0.0367502198 -0.0041468143
-0.0336972699 -0.0429237932 0.0048079491
-0.0011798185 -0.0315112174 0.0372136831
0.0058376514 -0.0317428298 0.0301505923
-0.0447287671 -0.0361940563 0.0001115799
0.0209577903 0.0587232672 -0.0232450962
-0.0153645901 0.0120526906 0.0232777596
0.0357898511 -0.0334946662 -0.0232722759
-0.0308609884 -0.0687639937 -0.0203053951
0.0541775301 0.0055062519 -0.0203726292
0.0660081282 0.0449165814 -0.0320649147
-0.0265926477 -0.0534881875 0.0007994175
0.0502645522 0.0266130585 -0.0159474611
0.0315200128 0.0298120286 -0.0049506426
-0.0489124693 -0.0436226167 -0.0113883018
-0.0291008055 -0.0014683750 0.0370823741
0.0580529720 0.0126184942 -0.0235555172
-0.0663777813 -0.0119140958 0.0014895201
0.0167736709 0.0225970000 0.0060896873
-0.0223505013 0.0086319195 0.0272813439
-0.0476038381 0.0121469535 0.0154753327
-0.0588640794 -0.0153033547 0.0061359406
-0.0423963368 -0.0730574802 -0.0310007334
0.0129825324 -0.0354343951 0.0210713148
-0.0398710072 0.0052461908 0.0298548341
0.0248339493 0.0662753060 -0.0304238796
0.0504494235 -0.0051011681 -0.0197424889
0.0312718786 -0.0153499013 0.0031393766
-0.0442459658 -0.0255183894 0.0108153820
-0.0522299260 -0.0328871571 -0.0047460794
0.0620335266 0.0411826558 -0.0281181335
0.0094492892 -0.0490908995 0.0194500089
0.0579994023 0.0267852210 -0.0225976706
0.0619315840 0.0268838089 -0.0264059305
0.0170677360 0.0475597568 -0.0120199919
-0.0158109795 0.0367526077 -0.0042127371
-0.0364857800 0.0086395359 0.0263987780
-0.0012001351 0.0018894050 0.0259531736
0.0312470533 -0.0118843867 0.0039486885
-0.0011937073 -0.0048461244 0.0295157433
-0.0151580619 -0.0048125694 0.0359965563
0.0165655129 -0.0117036486 0.0189089179
0.0275489409 -0.0152865574 0.0072172880
0.0392219312 0.0442231223 -0.0159929991
-0.0192824062 0.0295424890 0.0042361021
-0.0649550408 -0.0517302155 -0.0332827568
0.0315708593 0.0333500542 -0.0066083670
0.0540783331 0.0196178332 -0.0184766054
0.0202611573 -0.0323427394 0.0118561387
0.0094539067 0.0053027137 0.0189381838
0.0131495250 0.0225575287 0.0078489184
0.0166811962 0.0121915415 0.0117846727
0.0387765877 -0.0050208960 -0.0042390823
-0.0508753695 -0.0082830694 0.0211427212
-0.0400483273 -0.0150013035 0.0255817175
0.0788370296 0.0166366380 -0.0538307428
0.0276242867 -0.0256836135 0.0044332743
-0.0435887985 -0.0116254110 0.0253849030
0.0619342625 0.0233270992 -0.0264508724
0.0349941365 0.0088678617 -0.0000602007
-0.0301028658 0.0260859858 0.0044119358
-0.0222106446 -0.0249377470 0.0332440734
0.0099016558 0.0627201200 -0.0306953192
0.0167096332 0.0156446379 0.0100333691
0.0023171345 -0.0249402039 0.0331492424
0.0239674691 -0.0325177684 0.0065186024
0.0387910120 -0.0085053854 -0.0046197176
-0.0293369163 -0.0216725245 0.0293844342
-0.0050253985 0.0554603189 -0.0285506248
-0.0186740607 -0.0014721609 0.0348887444
0.0699048191 0.0342619829 -0.0344181061
0.0023156162 -0.0416646302 0.0339908004
0.0283765662 0.0587300286 -0.0233638287
0.0214621462 0.0783432946 -0.0486580133
0.0166849047 -0.0426326208 0.0115563273
-0.0686557069 -0.0481185056 -0.0326335430
-0.0373034216 0.0226255171 0.0048185587
0.0238380861 -0.0117866965 0.0120348334
0.0171844326 0.0549603887 -0.0192066431
0.0580511652 0.0339047201 -0.0235232115
0.0325200483 0.0739230961 -0.0375550985
0.0280784722 -0.0401548743 -0.0123491287
-0.0271580815 -0.0758216009 -0.0200935602
-0.0220254920 -0.0081105204 0.0411381125
0.0135617917 0.0588114895 -0.0247941017
-0.0473052338 -0.0116710756 0.0216050744
-0.0189094525 -0.0387505628 0.0230280161
-0.0445719436 -0.0326138549 0.0035883188
0.0165868960 -0.0049078618 0.0175920725
0.0023565735 0.0224803239 0.0112898946
-0.0622862950 -0.0083880331 0.0089792609
0.0023162810 -0.0383300148 0.0336223245
-0.0253953207 -0.0113879386 0.0450412035
-0.0292168502 -0.0182330646 0.0332989693
0.0094183842 -0.0048805038 0.0228759050
0.0464419909 0.0265320651 -0.0128190517
-0.0377591066 -0.0504251719 -0.0072083473
0.0425310507 0.0019463073 -0.0070166588
0.0203538239 -0.0393793806 0.0071869493
-0.0422747806 -0.0692867339 -0.0280715227
-0.0012354924 0.0294802859 0.0063561201
0.0169224124 0.0367112085 -0.0030704737
0.0627393201 -0.0016013631 -0.0399724245
0.0094100311 -0.0082601234 0.0238017440
-0.0478331335 -0.0220902059 0.0107682943
-0.0083194952 0.0154986950 0.0194290876
0.0394768976 0.0551484898 -0.0227223635
-0.0081004323 -0.0312981121 0.0437124372
-0.0152538018 -0.0351071432 0.0301005244
0.0129987793 -0.0388793014 0.0197848678
-0.0086538196 0.0478212349 -0.0176311731
-0.0195824206 -0.0716337562 -0.0108807087
0.0699460804 0.0450447798 -0.0350360870
-0.0270295497 -0.0684300661 -0.0153442621
-0.0294442233 -0.0251282416 0.0258858204
0.0349871181 0.0054000211 0.0001444817
-0.0191019680 0.0224345997 0.0133278370
-0.0184803829 -0.0147051523 0.0446475744
-0.0012301167 0.0259585194 0.0093356371
-0.0120067829 -0.0599289574 0.0088591576
-0.0431673862 0.0018742611 0.0347277522
-0.0457803681 -0.0583190285 -0.0232027769
0.0023197299 -0.0518343486 0.0317108035
-0.0012925341 0.0552842356 -0.0252596140
0.0093852058 -0.0251109488 0.0265537500
-0.0440682545 -0.0220007524 0.0147553086
0.0061448100 0.0589142069 -0.0265976191
0.0134435054 0.0512384139 -0.0154283047
0.0204340853 -0.0429956391 0.0031428337
-0.0498292074 -0.0622887984 -0.0302070379
-0.0081964275 -0.0048277159 0.0330712199
-0.0150528057 -0.0147388428 0.0424786806
-0.0366487056 -0.0218359940 0.0220986009
0.0350518413 -0.0154257463 -0.0017434359
0.0387625135 0.0123806400 -0.0038675070
-0.0154787013 -0.0492510460 0.0162503123
-0.0259656422 0.0120443562 0.0239676237
0.0202796403 0.0087730680 0.0109247565
0.0131793981 0.0260582417 0.0054836273
-0.0538944304 0.0018813976 0.0305927396
-0.0558585003 -0.0293976702 -0.0045232773
-0.0296536908 -0.0321066268 0.0190564990
-0.0514280349 -0.0186643787 0.0105800033
-0.0262954924 0.0224693399 0.0117794871
-0.0254701599 -0.0147419926 0.0422759056
-0.0085585937 0.0403473526 -0.0070753098
0.0620547645 0.0126779256 -0.0284748077
0.0510310754 0.0627797619 -0.0316827297
0.0399372801 0.0701463893 -0.0348733664
-0.0385572650 -0.0728645548 -0.0282742977
-0.0155604491 -0.0529308766 0.0112159252
0.0023300815 -0.0014875480 0.0259733200
-0.0161597673 0.0481968820 -0.0256924629
0.0389501341 0.0299255401 -0.0088194609
0.0203355215 0.0156745277 0.0081091523
-0.0295404512 -0.0285975095 0.0227485299
-0.0380389020 -0.0578286685 -0.0145930052
0.0465417132 0.0336262099 -0.0150299072
-0.0341020189 0.0298721306 -0.0069991350
-0.0012068242 0.0086753741 0.0222456455
-0.0158625916 -0.0748789161 -0.0073912144
0.0390644446 0.0370289199 -0.0118365288
0.0023210170 -0.0149171818 0.0309973955
-0.0186276156 -0.0048061884 0.0372289419
-0.0431768522 -0.0048202253 0.0345178843
-0.0047450666 -0.0522874966 0.0232411623
-0.0587495267 0.0087977890 0.0080599785
0.0276813228 -0.0291967168 0.0023257732
0.0583739951 0.0519324616 -0.0292952061
-0.0583030581 -0.0049183895 0.0155587196
0.0739364177 0.0343941040 -0.0384471416
-0.0087265633 0.0517522655 -0.0256949663
0.0621610321 0.0091284662 -0.0302596092
0.0133581664 0.0439072065 -0.0086712837
0.0172622073 0.0587660521 -0.0239963531
-0.0402011089 -0.0184494704 0.0218999982
-0.0116812978 -0.0048196404 0.0346308351
-0.0257017445 0.0018760024 0.0337187052
-0.0119667957 -0.0563126355 0.0120253563
0.0547360592 0.0591676384 -0.0310473442
-0.0150047103 -0.0213122796 0.0454405546
0.0094286576 -0.0014948592 0.0217370987
0.0166003052 -0.0015034385 0.0167662501
0.0469134785 0.0516309962 -0.0232720375
-0.0518295430 -0.0257231444 0.0029062033
0.0542308353 0.0373752229 -0.0213913918
-0.0264800414 -0.0498161204 0.0049602985
0.0285673346 0.0662745982 -0.0304127932
0.0062732203 0.0711862072 -0.0503215790
-0.0327317789 -0.0148864994 0.0329726338
-0.0363297164 0.0052427589 0.0305177569
-0.0050735562 0.0595321804 -0.0374479294
0.0349728726 -0.0015314084 0.0005600452
-0.0338108614 0.0261615161 0.0014942884
0.0212048776 0.0702017024 -0.0356950760
-0.0115908561 -0.0180718247 0.0417919755
0.0352253728 0.0298664551 -0.0068056583
0.0238480773 -0.0152183427 0.0116088986
-0.0049254815 0.0439684577 -0.0100908279
-0.0121518401 0.0366951115 -0.0026264191
0.0102105942 0.0795517415 -0.0649415255
0.0741008297 0.0236486755 -0.0407836437
-0.0151252458 -0.0081374496 0.0380175114
0.0580189116 0.0303400308 -0.0229465961
-0.0303301867 -0.0536914393 -0.0029995441
-0.0479766130 0.0156789720 0.0078229308
-0.0326895565 0.0018751642 0.0342044234
0.0581489094 0.0410696305 -0.0252708197
-0.0260928236 -0.0354997478 0.0192681551
-0.0394584611 -0.0047928947 0.0397964120
-0.0487335585 -0.0399709456 -0.0077155828
0.0023666788 0.0294998605 0.0056889057
-0.0715805963 -0.0298818573 -0.0210258961
-0.0187031738 -0.0282843541 0.0334218740
-0.0261839591 -0.0390334837 0.0159007311
0.0468479246 -0.0157375745 -0.0218186378
-0.0081376079 -0.0347631536 0.0395914912
-0.0229705498 -0.0569493771 0.0008455515
-0.0328523144 -0.0183060113 0.0294564962
0.0505382344 0.0444635674 -0.0215656757
0.0323081389 0.0662894994 -0.0306462049
-0.0450296625 0.0228808001 -0.0065593719
0.0136132352 0.0626096949 -0.0288674831
-0.0506395549 0.0052679642 0.0256496668
