VERSION 0.7
FIELDS x y z rgb normal_x normal_y normal_z curvature
SIZE 4 4 4 4 4 4 4 4
TYPE F F F U F F F F
COUNT 1 1 1 1 1 1 1 1
WIDTH 471
HEIGHT 1
VIEWPOINT 0.0 0.0 0.0 1.0 0.0 0.0 0.0
POINTS 471
DATA ascii
-0.0082302168 -0.0432973206 0.0245935917 16510090 0.0000000000 0.0000000000 0.0000000000 0.0000000000
-0.0087980479 -0.0433039553 0.0235935748 16115332 0.0000000000 0.0000000000 0.0000000000 0.0000000000
-0.0093692541 -0.0433105901 0.0225935876 16180610 0.0000000000 0.0000000000 0.0000000000 0.0000000000
-0.0101896003 -0.0433105901 0.0225935876 16246403 0.0000000000 0.0000000000 0.0000000000 0.0000000000
-0.0107658356 -0.0433172248 0.0215935707 16376959 0.0000000000 0.0000000000 0.0000000000 0.0000000000
-0.0115878582 -0.0433172248 0.0215935707 16113787 0.0000000000 0.0000000000 0.0000000000 0.0000000000
-0.0124098882 -0.0433172248 0.0215935707 16310133 0.0000000000 0.0000000000 0.0000000000 0.0000000000
-0.0129928738 -0.0433238596 0.0205935836 16310133 0.0000000000 0.0000000000 0.0000000000 0.0000000000
-0.0138165802 -0.0433238596 0.0205935836 16308848 0.0000000000 0.0000000000 0.0000000000 0.0000000000
-0.0146402940 -0.0433238596 0.0205935836 16440434 0.0000000000 0.0000000000 0.0000000000 0.0000000000
-0.0154640004 -0.0433238596 0.0205935836 16309102 0.0000000000 0.0000000000 0.0000000000 0.0000000000
-0.0162877142 -0.0433238596 0.0205935836 16440172 0.0000000000 0.0000000000 0.0000000000 0.0000000000
-0.0168808177 -0.0433304943 0.0195935965 16440172 0.0000000000 0.0000000000 0.0000000000 0.0000000000
-0.0177062079 -0.0433304943 0.0195935965 16373866 0.0000000000 0.0000000000 0.0000000000 0.0000000000
-0.0185315982 -0.0433304943 0.0195935965 16505452 0.0000000000 0.0000000000 0.0000000000 0.0000000000
-0.0193569958 -0.0433304943 0.0195935965 16374120 0.0000000000 0.0000000000 0.0000000000 0.0000000000
-0.0199585110 -0.0433371291 0.0185935795 16374120 0.0000000000 0.0000000000 0.0000000000 0.0000000000
-0.0207855850 -0.0433371291 0.0185935795 16373348 0.0000000000 0.0000000000 0.0000000000 0.0000000000
-0.0213921592 -0.0433437675 0.0175935924 16504934 0.0000000000 0.0000000000 0.0000000000 0.0000000000
-0.0222209245 -0.0433437675 0.0175935924 16504934 0.0000000000 0.0000000000 0.0000000000 0.0000000000
-0.0228325501 -0.0433504023 0.0165935755 16504934 0.0000000000 0.0000000000 0.0000000000 0.0000000000
-0.0236629844 -0.0433504023 0.0165935755 16570729 0.0000000000 0.0000000000 0.0000000000 0.0000000000
-0.0242796764 -0.0433570370 0.0155935884 16373350 0.0000000000 0.0000000000 0.0000000000 0.0000000000
-0.0251117945 -0.0433570370 0.0155935884 16570216 0.0000000000 0.0000000000 0.0000000000 0.0000000000
-0.0257335305 -0.0433636717 0.0145935714 16372837 0.0000000000 0.0000000000 0.0000000000 0.0000000000
-0.0263586342 -0.0433703065 0.0135935843 16306790 0.0000000000 0.0000000000 0.0000000000 0.0000000000
-0.0269871056 -0.0433769412 0.0125935972 16306790 0.0000000000 0.0000000000 0.0000000000 0.0000000000
-0.0276189372 -0.0433835760 0.0115935802 16437606 0.0000000000 0.0000000000 0.0000000000 0.0000000000
-0.0282541439 -0.0433902107 0.0105935931 16306020 0.0000000000 0.0000000000 0.0000000000 0.0000000000
-0.0288927406 -0.0433968455 0.0095936060 16437092 0.0000000000 0.0000000000 0.0000000000 0.0000000000
-0.0295346677 -0.0434034802 0.0085935593 16042334 0.0000000000 0.0000000000 0.0000000000 0.0000000000
-0.0301799849 -0.0434101149 0.0075935721 16436579 0.0000000000 0.0000000000 0.0000000000 0.0000000000
-0.0308286697 -0.0434167497 0.0065935850 16436579 0.0000000000 0.0000000000 0.0000000000 0.0000000000
-0.0314807296 -0.0434233844 0.0055935979 16435809 0.0000000000 0.0000000000 0.0000000000 0.0000000000
-0.0323297009 -0.0434233844 0.0055935979 16435809 0.0000000000 0.0000000000 0.0000000000 0.0000000000
-0.0329868123 -0.0434300192 0.0045936108 16369764 0.0000000000 0.0000000000 0.0000000000 0.0000000000
-0.0336472765 -0.0434366539 0.0035935640 16369764 0.0000000000 0.0000000000 0.0000000000 0.0000000000
-0.0343111232 -0.0434432887 0.0025935769 16304243 0.0000000000 0.0000000000 0.0000000000 0.0000000000
-0.0351651460 -0.0434432887 0.0025935769 16172657 0.0000000000 0.0000000000 0.0000000000 0.0000000000
0.0444233119 -0.0425793603 0.0045936108 7824459 0.0000000000 0.0000000000 0.0000000000 0.0000000000
0.0432291776 -0.0425744094 0.0055935979 12035211 0.0000000000 0.0000000000 0.0000000000 0.0000000000
0.0423801988 -0.0425744094 0.0055935979 12164965 0.0000000000 0.0000000000 0.0000000000 0.0000000000
0.0411911309 -0.0425694585 0.0065935850 12164965 0.0000000000 0.0000000000 0.0000000000 0.0000000000
0.0400054157 -0.0425645076 0.0075935721 12426327 0.0000000000 0.0000000000 0.0000000000 0.0000000000
0.0388230830 -0.0425595567 0.0085935593 12360534 0.0000000000 0.0000000000 0.0000000000 0.0000000000
0.0376440883 -0.0425546058 0.0095936060 12491340 0.0000000000 0.0000000000 0.0000000000 0.0000000000
0.0364684761 -0.0425496548 0.0105935931 12228168 0.0000000000 0.0000000000 0.0000000000 0.0000000000
0.0352962613 -0.0425447077 0.0115935802 11568442 0.0000000000 0.0000000000 0.0000000000 0.0000000000
0.0337973833 -0.0425348058 0.0135935843 10647340 0.0000000000 0.0000000000 0.0000000000 0.0000000000
0.0326335877 -0.0425298549 0.0145935714 10252060 0.0000000000 0.0000000000 0.0000000000 0.0000000000
0.0314731300 -0.0425249040 0.0155935884 9923095 0.0000000000 0.0000000000 0.0000000000 0.0000000000
0.0303160548 -0.0425199531 0.0165935755 9988374 0.0000000000 0.0000000000 0.0000000000 0.0000000000
0.0291623622 -0.0425150022 0.0175935924 9198858 0.0000000000 0.0000000000 0.0000000000 0.0000000000
0.0280120224 -0.0425100513 0.0185935795 9198858 0.0000000000 0.0000000000 0.0000000000 0.0000000000
0.0268650353 -0.0425051004 0.0195935965 9658896 0.0000000000 0.0000000000 0.0000000000 0.0000000000
0.0260396600 -0.0425051004 0.0195935965 9724689 0.0000000000 0.0000000000 0.0000000000 0.0000000000
0.0248977393 -0.0425001532 0.0205935836 9593618 0.0000000000 0.0000000000 0.0000000000 0.0000000000
0.0237591863 -0.0424952023 0.0215935707 9659411 0.0000000000 0.0000000000 0.0000000000 0.0000000000
0.0226240158 -0.0424902514 0.0225935876 9856790 0.0000000000 0.0000000000 0.0000000000 0.0000000000
0.0214922130 -0.0424853005 0.0235935748 10054169 0.0000000000 0.0000000000 0.0000000000 0.0000000000
0.0206735432 -0.0424853005 0.0235935748 10578967 0.0000000000 0.0000000000 0.0000000000 0.0000000000
0.0195468068 -0.0424803495 0.0245935917 11039518 0.0000000000 0.0000000000 0.0000000000 0.0000000000
0.0187298208 -0.0424803495 0.0245935917 11631135 0.0000000000 0.0000000000 0.0000000000 0.0000000000
0.0176081210 -0.0424753986 0.0255935788 12223272 0.0000000000 0.0000000000 0.0000000000 0.0000000000
0.0167928487 -0.0424753986 0.0255935788 12684073 0.0000000000 0.0000000000 0.0000000000 0.0000000000
0.0159775466 -0.0424753986 0.0255935788 13670968 0.0000000000 0.0000000000 0.0000000000 0.0000000000
0.0148625821 -0.0424704477 0.0265935957 14197564 0.0000000000 0.0000000000 0.0000000000 0.0000000000
0.0140489787 -0.0424704477 0.0265935957 14987080 0.0000000000 0.0000000000 0.0000000000 0.0000000000
0.0132353753 -0.0424704477 0.0265935957 15843161 0.0000000000 0.0000000000 0.0000000000 0.0000000000
0.0124217719 -0.0424704477 0.0265935957 16237919 0.0000000000 0.0000000000 0.0000000000 0.0000000000
0.0113152415 -0.0424654968 0.0275935829 16500319 0.0000000000 0.0000000000 0.0000000000 0.0000000000
0.0105033219 -0.0424654968 0.0275935829 16762973 0.0000000000 0.0000000000 0.0000000000 0.0000000000
0.0096914172 -0.0424654968 0.0275935829 16565594 0.0000000000 0.0000000000 0.0000000000 0.0000000000
0.0088794827 -0.0424654968 0.0275935829 16763999 0.0000000000 0.0000000000 0.0000000000 0.0000000000
0.0080675632 -0.0424654968 0.0275935829 16763485 0.0000000000 0.0000000000 0.0000000000 0.0000000000
0.0072556585 -0.0424654968 0.0275935829 16763998 0.0000000000 0.0000000000 0.0000000000 0.0000000000
0.0061609000 -0.0424605496 0.0285935700 16764769 0.0000000000 0.0000000000 0.0000000000 0.0000000000
0.0053506643 -0.0424605496 0.0285935700 16764775 0.0000000000 0.0000000000 0.0000000000 0.0000000000
0.0045404434 -0.0424605496 0.0285935700 16765546 0.0000000000 0.0000000000 0.0000000000 0.0000000000
0.0037302077 -0.0424605496 0.0285935700 16699499 0.0000000000 0.0000000000 0.0000000000 0.0000000000
0.0029199719 -0.0424605496 0.0285935700 16766063 0.0000000000 0.0000000000 0.0000000000 0.0000000000
0.0021097511 -0.0424605496 0.0285935700 16766580 0.0000000000 0.0000000000 0.0000000000 0.0000000000
0.0012995005 -0.0424605496 0.0285935700 16766837 0.0000000000 0.0000000000 0.0000000000 0.0000000000
0.0004892647 -0.0424605496 0.0285935700 16766840 0.0000000000 0.0000000000 0.0000000000 0.0000000000
-0.0003209561 -0.0424605496 0.0285935700 16766840 0.0000000000 0.0000000000 0.0000000000 0.0000000000
-0.0008635223 -0.0424654968 0.0275935829 16767096 0.0000000000 0.0000000000 0.0000000000 0.0000000000
-0.0016754419 -0.0424654968 0.0275935829 16767096 0.0000000000 0.0000000000 0.0000000000 0.0000000000
-0.0024873614 -0.0424654968 0.0275935829 16767611 0.0000000000 0.0000000000 0.0000000000 0.0000000000
-0.0030366629 -0.0424704477 0.0265935957 16767354 0.0000000000 0.0000000000 0.0000000000 0.0000000000
-0.0038502663 -0.0424704477 0.0265935957 16768127 0.0000000000 0.0000000000 0.0000000000 0.0000000000
-0.0046638697 -0.0424704477 0.0265935957 16768384 0.0000000000 0.0000000000 0.0000000000 0.0000000000
-0.0054774806 -0.0424704477 0.0265935957 16770180 0.0000000000 0.0000000000 0.0000000000 0.0000000000
-0.0060351938 -0.0424753986 0.0255935788 16771722 0.0000000000 0.0000000000 0.0000000000 0.0000000000
-0.0068504810 -0.0424753986 0.0255935788 16772236 0.0000000000 0.0000000000 0.0000000000 0.0000000000
-0.0074132606 -0.0424803495 0.0245935917 16771979 0.0000000000 0.0000000000 0.0000000000 0.0000000000
-0.0082302168 -0.0424803495 0.0245935917 16706956 0.0000000000 0.0000000000 0.0000000000 0.0000000000
-0.0090471953 -0.0424803495 0.0245935917 16772749 0.0000000000 0.0000000000 0.0000000000 0.0000000000
-0.0096167102 -0.0424853005 0.0235935748 16773006 0.0000000000 0.0000000000 0.0000000000 0.0000000000
-0.0104353577 -0.0424853005 0.0235935748 16114819 0.0000000000 0.0000000000 0.0000000000 0.0000000000
-0.0110099241 -0.0424902514 0.0225935876 16377473 0.0000000000 0.0000000000 0.0000000000 0.0000000000
-0.0118302703 -0.0424902514 0.0225935876 16114301 0.0000000000 0.0000000000 0.0000000000 0.0000000000
-0.0124098882 -0.0424952023 0.0215935707 16441721 0.0000000000 0.0000000000 0.0000000000 0.0000000000
-0.0132319108 -0.0424952023 0.0215935707 16244342 0.0000000000 0.0000000000 0.0000000000 0.0000000000
-0.0140539408 -0.0424952023 0.0215935707 16243827 0.0000000000 0.0000000000 0.0000000000 0.0000000000
-0.0148759708 -0.0424952023 0.0215935707 16506227 0.0000000000 0.0000000000 0.0000000000 0.0000000000
-0.0154640004 -0.0425001532 0.0205935836 16374641 0.0000000000 0.0000000000 0.0000000000 0.0000000000
-0.0162877142 -0.0425001532 0.0205935836 16505967 0.0000000000 0.0000000000 0.0000000000 0.0000000000
-0.0171114281 -0.0425001532 0.0205935836 16505967 0.0000000000 0.0000000000 0.0000000000 0.0000000000
-0.0179351345 -0.0425001532 0.0205935836 16308840 0.0000000000 0.0000000000 0.0000000000 0.0000000000
-0.0185315982 -0.0425051004 0.0195935965 16440426 0.0000000000 0.0000000000 0.0000000000 0.0000000000
-0.0193569958 -0.0425051004 0.0195935965 16439913 0.0000000000 0.0000000000 0.0000000000 0.0000000000
-0.0201823860 -0.0425051004 0.0195935965 16439913 0.0000000000 0.0000000000 0.0000000000 0.0000000000
-0.0207855850 -0.0425100513 0.0185935795 16504934 0.0000000000 0.0000000000 0.0000000000 0.0000000000
-0.0216126591 -0.0425100513 0.0185935795 16373348 0.0000000000 0.0000000000 0.0000000000 0.0000000000
-0.0222209245 -0.0425150022 0.0175935924 16438626 0.0000000000 0.0000000000 0.0000000000 0.0000000000
-0.0230496749 -0.0425150022 0.0175935924 16438626 0.0000000000 0.0000000000 0.0000000000 0.0000000000
-0.0236629844 -0.0425199531 0.0165935755 16438628 0.0000000000 0.0000000000 0.0000000000 0.0000000000
-0.0244934410 -0.0425199531 0.0165935755 16636007 0.0000000000 0.0000000000 0.0000000000 0.0000000000
-0.0251117945 -0.0425249040 0.0155935884 16438628 0.0000000000 0.0000000000 0.0000000000 0.0000000000
-0.0257335305 -0.0425298549 0.0145935714 16438628 0.0000000000 0.0000000000 0.0000000000 0.0000000000
-0.0263586342 -0.0425348058 0.0135935843 16503653 0.0000000000 0.0000000000 0.0000000000 0.0000000000
-0.0271941349 -0.0425348058 0.0135935843 16503653 0.0000000000 0.0000000000 0.0000000000 0.0000000000
-0.0278242901 -0.0425397567 0.0125935972 16503399 0.0000000000 0.0000000000 0.0000000000 0.0000000000
-0.0284578055 -0.0425447077 0.0115935802 16503399 0.0000000000 0.0000000000 0.0000000000 0.0000000000
-0.0290947109 -0.0425496548 0.0105935931 16502885 0.0000000000 0.0000000000 0.0000000000 0.0000000000
-0.0297349691 -0.0425546058 0.0095936060 16371299 0.0000000000 0.0000000000 0.0000000000 0.0000000000
-0.0303785875 -0.0425595567 0.0085935593 16436579 0.0000000000 0.0000000000 0.0000000000 0.0000000000
-0.0310255960 -0.0425645076 0.0075935721 16304993 0.0000000000 0.0000000000 0.0000000000 0.0000000000
-0.0316759646 -0.0425694585 0.0065935850 16567395 0.0000000000 0.0000000000 0.0000000000 0.0000000000
-0.0323297009 -0.0425744094 0.0055935979 16435809 0.0000000000 0.0000000000 0.0000000000 0.0000000000
-0.0329868123 -0.0425793603 0.0045936108 16370018 0.0000000000 0.0000000000 0.0000000000 0.0000000000
-0.0338374749 -0.0425793603 0.0045936108 16370018 0.0000000000 0.0000000000 0.0000000000 0.0000000000
-0.0344996229 -0.0425843112 0.0035935640 16434794 0.0000000000 0.0000000000 0.0000000000 0.0000000000
-0.0351651460 -0.0425892621 0.0025935769 16369001 0.0000000000 0.0000000000 0.0000000000 0.0000000000
0.0444233119 -0.0417286977 0.0045936108 9994593 0.0000000000 0.0000000000 0.0000000000 0.0000000000
0.0432291776 -0.0417254344 0.0055935979 11639418 0.0000000000 0.0000000000 0.0000000000 0.0000000000
0.0423801988 -0.0417254344 0.0055935979 11769691 0.0000000000 0.0000000000 0.0000000000 0.0000000000
0.0411911309 -0.0417221673 0.0065935850 12230242 0.0000000000 0.0000000000 0.0000000000 0.0000000000
0.0403438210 -0.0417221673 0.0065935850 12031823 0.0000000000 0.0000000000 0.0000000000 0.0000000000
0.0388230830 -0.0417156368 0.0085935593 12360788 0.0000000000 0.0000000000 0.0000000000 0.0000000000
0.0376440883 -0.0417123698 0.0095936060 12292678 0.0000000000 0.0000000000 0.0000000000 0.0000000000
0.0364684761 -0.0417091027 0.0105935931 10055716 0.0000000000 0.0000000000 0.0000000000 0.0000000000
0.0352962613 -0.0417058356 0.0115935802 10053917 0.0000000000 0.0000000000 0.0000000000 0.0000000000
0.0341273844 -0.0417025723 0.0125935972 9856538 0.0000000000 0.0000000000 0.0000000000 0.0000000000
0.0329619050 -0.0416993052 0.0135935843 9856790 0.0000000000 0.0000000000 0.0000000000 0.0000000000
0.0317997634 -0.0416960381 0.0145935714 9593618 0.0000000000 0.0000000000 0.0000000000 0.0000000000
0.0306410044 -0.0416927710 0.0155935884 9198862 0.0000000000 0.0000000000 0.0000000000 0.0000000000
0.0294856280 -0.0416895077 0.0165935755 9988124 0.0000000000 0.0000000000 0.0000000000 0.0000000000
0.0283335894 -0.0416862406 0.0175935924 9922331 0.0000000000 0.0000000000 0.0000000000 0.0000000000
0.0271849334 -0.0416829735 0.0185935795 9724700 0.0000000000 0.0000000000 0.0000000000 0.0000000000
0.0260396600 -0.0416797101 0.0195935965 10316837 0.0000000000 0.0000000000 0.0000000000 0.0000000000
0.0248977393 -0.0416764431 0.0205935836 10317351 0.0000000000 0.0000000000 0.0000000000 0.0000000000
0.0237591863 -0.0416731760 0.0215935707 10317351 0.0000000000 0.0000000000 0.0000000000 0.0000000000
0.0229371786 -0.0416731760 0.0215935707 9725214 0.0000000000 0.0000000000 0.0000000000 0.0000000000
0.0218036771 -0.0416699126 0.0225935876 9725214 0.0000000000 0.0000000000 0.0000000000 0.0000000000
0.0206735432 -0.0416666456 0.0235935748 9724954 0.0000000000 0.0000000000 0.0000000000 0.0000000000
0.0198549032 -0.0416666456 0.0235935748 9659161 0.0000000000 0.0000000000 0.0000000000 0.0000000000
0.0187298208 -0.0416633785 0.0245935917 9724693 0.0000000000 0.0000000000 0.0000000000 0.0000000000
0.0179128498 -0.0416633785 0.0245935917 9658900 0.0000000000 0.0000000000 0.0000000000 0.0000000000
0.0167928487 -0.0416601114 0.0255935788 9921037 0.0000000000 0.0000000000 0.0000000000 0.0000000000
0.0159775466 -0.0416601114 0.0255935788 10315795 0.0000000000 0.0000000000 0.0000000000 0.0000000000
0.0151622593 -0.0416601114 0.0255935788 10973457 0.0000000000 0.0000000000 0.0000000000 0.0000000000
0.0140489787 -0.0416568480 0.0265935957 11894559 0.0000000000 0.0000000000 0.0000000000 0.0000000000
0.0132353753 -0.0416568480 0.0265935957 12749868 0.0000000000 0.0000000000 0.0000000000 0.0000000000
0.0124217719 -0.0416568480 0.0265935957 13605177 0.0000000000 0.0000000000 0.0000000000 0.0000000000
0.0113152415 -0.0416535810 0.0275935829 15710553 0.0000000000 0.0000000000 0.0000000000 0.0000000000
0.0105033219 -0.0416535810 0.0275935829 16302940 0.0000000000 0.0000000000 0.0000000000 0.0000000000
0.0096914172 -0.0416535810 0.0275935829 16368733 0.0000000000 0.0000000000 0.0000000000 0.0000000000
0.0088794827 -0.0416535810 0.0275935829 16631639 0.0000000000 0.0000000000 0.0000000000 0.0000000000
0.0080675632 -0.0416535810 0.0275935829 16697432 0.0000000000 0.0000000000 0.0000000000 0.0000000000
0.0072556585 -0.0416535810 0.0275935829 16764255 0.0000000000 0.0000000000 0.0000000000 0.0000000000
0.0064437389 -0.0416535810 0.0275935829 16764512 0.0000000000 0.0000000000 0.0000000000 0.0000000000
0.0053506643 -0.0416503139 0.0285935700 16765029 0.0000000000 0.0000000000 0.0000000000 0.0000000000
0.0045404434 -0.0416503139 0.0285935700 16765286 0.0000000000 0.0000000000 0.0000000000 0.0000000000
0.0037302077 -0.0416503139 0.0285935700 16765809 0.0000000000 0.0000000000 0.0000000000 0.0000000000
0.0029199719 -0.0416503139 0.0285935700 16765552 0.0000000000 0.0000000000 0.0000000000 0.0000000000
0.0021097511 -0.0416503139 0.0285935700 16766064 0.0000000000 0.0000000000 0.0000000000 0.0000000000
0.0012995005 -0.0416503139 0.0285935700 16766321 0.0000000000 0.0000000000 0.0000000000 0.0000000000
0.0004892647 -0.0416503139 0.0285935700 16766323 0.0000000000 0.0000000000 0.0000000000 0.0000000000
-0.0003209561 -0.0416503139 0.0285935700 16766323 0.0000000000 0.0000000000 0.0000000000 0.0000000000
-0.0008635223 -0.0416535810 0.0275935829 16767093 0.0000000000 0.0000000000 0.0000000000 0.0000000000
-0.0016754419 -0.0416535810 0.0275935829 16767350 0.0000000000 0.0000000000 0.0000000000 0.0000000000
-0.0024873614 -0.0416535810 0.0275935829 16767353 0.0000000000 0.0000000000 0.0000000000 0.0000000000
-0.0032992810 -0.0416535810 0.0275935829 16766839 0.0000000000 0.0000000000 0.0000000000 0.0000000000
-0.0038502663 -0.0416568480 0.0265935957 16767609 0.0000000000 0.0000000000 0.0000000000 0.0000000000
-0.0046638697 -0.0416568480 0.0265935957 16768123 0.0000000000 0.0000000000 0.0000000000 0.0000000000
-0.0054774806 -0.0416568480 0.0265935957 16769151 0.0000000000 0.0000000000 0.0000000000 0.0000000000
-0.0060351938 -0.0416601114 0.0255935788 16769408 0.0000000000 0.0000000000 0.0000000000 0.0000000000
-0.0068504810 -0.0416601114 0.0255935788 16770435 0.0000000000 0.0000000000 0.0000000000 0.0000000000
-0.0076657608 -0.0416601114 0.0255935788 16771463 0.0000000000 0.0000000000 0.0000000000 0.0000000000
-0.0082302168 -0.0416633785 0.0245935917 16772748 0.0000000000 0.0000000000 0.0000000000 0.0000000000
-0.0090471953 -0.0416633785 0.0245935917 16772491 0.0000000000 0.0000000000 0.0000000000 0.0000000000
-0.0096167102 -0.0416666456 0.0235935748 16773004 0.0000000000 0.0000000000 0.0000000000 0.0000000000
-0.0104353577 -0.0416666456 0.0235935748 16509575 0.0000000000 0.0000000000 0.0000000000 0.0000000000
-0.0112540200 -0.0416666456 0.0235935748 16311426 0.0000000000 0.0000000000 0.0000000000 0.0000000000
-0.0118302703 -0.0416699126 0.0225935876 16114047 0.0000000000 0.0000000000 0.0000000000 0.0000000000
-0.0126506090 -0.0416699126 0.0225935876 16179065 0.0000000000 0.0000000000 0.0000000000 0.0000000000
-0.0132319108 -0.0416731760 0.0215935707 16179065 0.0000000000 0.0000000000 0.0000000000 0.0000000000
-0.0140539408 -0.0416731760 0.0215935707 16310135 0.0000000000 0.0000000000 0.0000000000 0.0000000000
-0.0148759708 -0.0416731760 0.0215935707 16309620 0.0000000000 0.0000000000 0.0000000000 0.0000000000
-0.0156979859 -0.0416731760 0.0215935707 16309620 0.0000000000 0.0000000000 0.0000000000 0.0000000000
-0.0165200084 -0.0416731760 0.0215935707 16440688 0.0000000000 0.0000000000 0.0000000000 0.0000000000
-0.0171114281 -0.0416764431 0.0205935836 16309102 0.0000000000 0.0000000000 0.0000000000 0.0000000000
-0.0179351345 -0.0416764431 0.0205935836 16505706 0.0000000000 0.0000000000 0.0000000000 0.0000000000
-0.0187588409 -0.0416764431 0.0205935836 16439913 0.0000000000 0.0000000000 0.0000000000 0.0000000000
-0.0193569958 -0.0416797101 0.0195935965 16374118 0.0000000000 0.0000000000 0.0000000000 0.0000000000
-0.0201823860 -0.0416797101 0.0195935965 16242532 0.0000000000 0.0000000000 0.0000000000 0.0000000000
-0.0210077763 -0.0416797101 0.0195935965 16504932 0.0000000000 0.0000000000 0.0000000000 0.0000000000
-0.0216126591 -0.0416829735 0.0185935795 16570725 0.0000000000 0.0000000000 0.0000000000 0.0000000000
-0.0224397406 -0.0416829735 0.0185935795 16373346 0.0000000000 0.0000000000 0.0000000000 0.0000000000
-0.0230496749 -0.0416862406 0.0175935924 16110174 0.0000000000 0.0000000000 0.0000000000 0.0000000000
-0.0238784403 -0.0416862406 0.0175935924 16570214 0.0000000000 0.0000000000 0.0000000000 0.0000000000
-0.0244934410 -0.0416895077 0.0165935755 16307042 0.0000000000 0.0000000000 0.0000000000 0.0000000000
-0.0253238901 -0.0416895077 0.0165935755 16438628 0.0000000000 0.0000000000 0.0000000000 0.0000000000
-0.0259439349 -0.0416927710 0.0155935884 16438628 0.0000000000 0.0000000000 0.0000000000 0.0000000000
-0.0265673473 -0.0416960381 0.0145935714 16438628 0.0000000000 0.0000000000 0.0000000000 0.0000000000
-0.0271941349 -0.0416993052 0.0135935843 16307042 0.0000000000 0.0000000000 0.0000000000 0.0000000000
-0.0278242901 -0.0417025723 0.0125935972 16372067 0.0000000000 0.0000000000 0.0000000000 0.0000000000
-0.0284578055 -0.0417058356 0.0115935802 16503653 0.0000000000 0.0000000000 0.0000000000 0.0000000000
-0.0290947109 -0.0417091027 0.0105935931 16503139 0.0000000000 0.0000000000 0.0000000000 0.0000000000
-0.0297349691 -0.0417123698 0.0095936060 16437346 0.0000000000 0.0000000000 0.0000000000 0.0000000000
-0.0303785875 -0.0417156368 0.0085935593 16436579 0.0000000000 0.0000000000 0.0000000000 0.0000000000
-0.0310255960 -0.0417189002 0.0075935721 16304993 0.0000000000 0.0000000000 0.0000000000 0.0000000000
-0.0316759646 -0.0417221673 0.0065935850 16435809 0.0000000000 0.0000000000 0.0000000000 0.0000000000
-0.0323297009 -0.0417254344 0.0055935979 16435809 0.0000000000 0.0000000000 0.0000000000 0.0000000000
-0.0331786796 -0.0417254344 0.0055935979 16435809 0.0000000000 0.0000000000 0.0000000000 0.0000000000
-0.0338374749 -0.0417286977 0.0045936108 16370016 0.0000000000 0.0000000000 0.0000000000 0.0000000000
-0.0344996229 -0.0417319648 0.0035935640 16369253 0.0000000000 0.0000000000 0.0000000000 0.0000000000
-0.0351651460 -0.0417352319 0.0025935769 16369253 0.0000000000 0.0000000000 0.0000000000 0.0000000000
0.0444233119 -0.0408780389 0.0045936108 11112554 0.0000000000 0.0000000000 0.0000000000 0.0000000000
0.0432291776 -0.0408764556 0.0055935979 11375726 0.0000000000 0.0000000000 0.0000000000 0.0000000000
0.0423801988 -0.0408764556 0.0055935979 11834705 0.0000000000 0.0000000000 0.0000000000 0.0000000000
0.0411911309 -0.0408748761 0.0065935850 12032084 0.0000000000 0.0000000000 0.0000000000 0.0000000000
0.0403438210 -0.0408748761 0.0065935850 12096328 0.0000000000 0.0000000000 0.0000000000 0.0000000000
0.0391598195 -0.0408732928 0.0075935721 11504191 0.0000000000 0.0000000000 0.0000000000 0.0000000000
0.0379791558 -0.0408717133 0.0085935593 10713131 0.0000000000 0.0000000000 0.0000000000 0.0000000000
0.0368018448 -0.0408701301 0.0095936060 9792029 0.0000000000 0.0000000000 0.0000000000 0.0000000000
0.0356279314 -0.0408685505 0.0105935931 9857052 0.0000000000 0.0000000000 0.0000000000 0.0000000000
0.0344573855 -0.0408669673 0.0115935802 9857052 0.0000000000 0.0000000000 0.0000000000 0.0000000000
0.0332902074 -0.0408653878 0.0125935972 9922845 0.0000000000 0.0000000000 0.0000000000 0.0000000000
0.0321263969 -0.0408638045 0.0135935843 10646568 0.0000000000 0.0000000000 0.0000000000 0.0000000000
0.0306410044 -0.0408606417 0.0155935884 10383144 0.0000000000 0.0000000000 0.0000000000 0.0000000000
0.0294856280 -0.0408590585 0.0165935755 10581295 0.0000000000 0.0000000000 0.0000000000 0.0000000000
0.0286551714 -0.0408590585 0.0165935755 10581295 0.0000000000 0.0000000000 0.0000000000 0.0000000000
0.0275048167 -0.0408574790 0.0175935924 10318125 0.0000000000 0.0000000000 0.0000000000 0.0000000000
0.0263578743 -0.0408558957 0.0185935795 10383918 0.0000000000 0.0000000000 0.0000000000 0.0000000000
0.0252142549 -0.0408543162 0.0195935965 10647090 0.0000000000 0.0000000000 0.0000000000 0.0000000000
0.0240740329 -0.0408527330 0.0205935836 10318125 0.0000000000 0.0000000000 0.0000000000 0.0000000000
0.0229371786 -0.0408511534 0.0215935707 10778674 0.0000000000 0.0000000000 0.0000000000 0.0000000000
0.0221151412 -0.0408511534 0.0215935707 10712881 0.0000000000 0.0000000000 0.0000000000 0.0000000000
0.0209833235 -0.0408495702 0.0225935876 10646318 0.0000000000 0.0000000000 0.0000000000 0.0000000000
0.0198549032 -0.0408479907 0.0235935748 10712111 0.0000000000 0.0000000000 0.0000000000 0.0000000000
0.0190362483 -0.0408479907 0.0235935748 10712111 0.0000000000 0.0000000000 0.0000000000 0.0000000000
0.0179128498 -0.0408464074 0.0245935917 10777904 0.0000000000 0.0000000000 0.0000000000 0.0000000000
0.0170958787 -0.0408464074 0.0245935917 10185505 0.0000000000 0.0000000000 0.0000000000 0.0000000000
0.0162789077 -0.0408464074 0.0245935917 10185505 0.0000000000 0.0000000000 0.0000000000 0.0000000000
0.0151622593 -0.0408448279 0.0255935788 9922322 0.0000000000 0.0000000000 0.0000000000 0.0000000000
0.0143469870 -0.0408448279 0.0255935788 9593357 0.0000000000 0.0000000000 0.0000000000 0.0000000000
0.0135316849 -0.0408448279 0.0255935788 10184207 0.0000000000 0.0000000000 0.0000000000 0.0000000000
0.0124217719 -0.0408432446 0.0265935957 10710551 0.0000000000 0.0000000000 0.0000000000 0.0000000000
0.0116081834 -0.0408432446 0.0265935957 12025125 0.0000000000 0.0000000000 0.0000000000 0.0000000000
0.0107945651 -0.0408432446 0.0265935957 13143856 0.0000000000 0.0000000000 0.0000000000 0.0000000000
0.0099809766 -0.0408432446 0.0265935957 14328130 0.0000000000 0.0000000000 0.0000000000 0.0000000000
0.0088794827 -0.0408416614 0.0275935829 15249736 0.0000000000 0.0000000000 0.0000000000 0.0000000000
0.0080675632 -0.0408416614 0.0275935829 16236631 0.0000000000 0.0000000000 0.0000000000 0.0000000000
0.0072556585 -0.0408416614 0.0275935829 16434526 0.0000000000 0.0000000000 0.0000000000 0.0000000000
0.0064437389 -0.0408416614 0.0275935829 16763491 0.0000000000 0.0000000000 0.0000000000 0.0000000000
0.0056318194 -0.0408416614 0.0275935829 16698468 0.0000000000 0.0000000000 0.0000000000 0.0000000000
0.0045404434 -0.0408400819 0.0285935700 16764775 0.0000000000 0.0000000000 0.0000000000 0.0000000000
0.0037302077 -0.0408400819 0.0285935700 16766318 0.0000000000 0.0000000000 0.0000000000 0.0000000000
0.0029199719 -0.0408400819 0.0285935700 16765290 0.0000000000 0.0000000000 0.0000000000 0.0000000000
0.0021097511 -0.0408400819 0.0285935700 16766319 0.0000000000 0.0000000000 0.0000000000 0.0000000000
0.0012995005 -0.0408400819 0.0285935700 16766319 0.0000000000 0.0000000000 0.0000000000 0.0000000000
0.0004892647 -0.0408400819 0.0285935700 16766064 0.0000000000 0.0000000000 0.0000000000 0.0000000000
-0.0003209561 -0.0408400819 0.0285935700 16766835 0.0000000000 0.0000000000 0.0000000000 0.0000000000
-0.0011311918 -0.0408400819 0.0285935700 16766578 0.0000000000 0.0000000000 0.0000000000 0.0000000000
-0.0016754419 -0.0408416614 0.0275935829 16766321 0.0000000000 0.0000000000 0.0000000000 0.0000000000
-0.0024873614 -0.0408416614 0.0275935829 16766321 0.0000000000 0.0000000000 0.0000000000 0.0000000000
-0.0032992810 -0.0408416614 0.0275935829 16766321 0.0000000000 0.0000000000 0.0000000000 0.0000000000
-0.0038502663 -0.0408432446 0.0265935957 16701300 0.0000000000 0.0000000000 0.0000000000 0.0000000000
-0.0046638697 -0.0408432446 0.0265935957 16767093 0.0000000000 0.0000000000 0.0000000000 0.0000000000
-0.0054774806 -0.0408432446 0.0265935957 16767607 0.0000000000 0.0000000000 0.0000000000 0.0000000000
-0.0062910765 -0.0408432446 0.0265935957 16767350 0.0000000000 0.0000000000 0.0000000000 0.0000000000
-0.0068504810 -0.0408448279 0.0255935788 16702329 0.0000000000 0.0000000000 0.0000000000 0.0000000000
-0.0076657608 -0.0408448279 0.0255935788 16769150 0.0000000000 0.0000000000 0.0000000000 0.0000000000
-0.0084810406 -0.0408448279 0.0255935788 16770435 0.0000000000 0.0000000000 0.0000000000 0.0000000000
-0.0090471953 -0.0408464074 0.0245935917 16772748 0.0000000000 0.0000000000 0.0000000000 0.0000000000
-0.0098641664 -0.0408464074 0.0245935917 16771463 0.0000000000 0.0000000000 0.0000000000 0.0000000000
-0.0106811374 -0.0408464074 0.0245935917 16772748 0.0000000000 0.0000000000 0.0000000000 0.0000000000
-0.0112540200 -0.0408479907 0.0235935748 16574084 0.0000000000 0.0000000000 0.0000000000 0.0000000000
-0.0120726675 -0.0408479907 0.0235935748 16508291 0.0000000000 0.0000000000 0.0000000000 0.0000000000
-0.0126506090 -0.0408495702 0.0225935876 16310653 0.0000000000 0.0000000000 0.0000000000 0.0000000000
-0.0134709477 -0.0408495702 0.0225935876 16376446 0.0000000000 0.0000000000 0.0000000000 0.0000000000
-0.0142912865 -0.0408495702 0.0225935876 16310651 0.0000000000 0.0000000000 0.0000000000 0.0000000000
-0.0151116401 -0.0408495702 0.0225935876 16375413 0.0000000000 0.0000000000 0.0000000000 0.0000000000
-0.0156979859 -0.0408511534 0.0215935707 16309620 0.0000000000 0.0000000000 0.0000000000 0.0000000000
-0.0165200084 -0.0408511534 0.0215935707 16506481 0.0000000000 0.0000000000 0.0000000000 0.0000000000
-0.0173420385 -0.0408511534 0.0215935707 16309102 0.0000000000 0.0000000000 0.0000000000 0.0000000000
-0.0179351345 -0.0408527330 0.0205935836 16374633 0.0000000000 0.0000000000 0.0000000000 0.0000000000
-0.0187588409 -0.0408527330 0.0205935836 16308840 0.0000000000 0.0000000000 0.0000000000 0.0000000000
-0.0195825547 -0.0408527330 0.0205935836 16374118 0.0000000000 0.0000000000 0.0000000000 0.0000000000
-0.0201823860 -0.0408543162 0.0195935965 16439911 0.0000000000 0.0000000000 0.0000000000 0.0000000000
-0.0210077763 -0.0408543162 0.0195935965 16307555 0.0000000000 0.0000000000 0.0000000000 0.0000000000
-0.0218331665 -0.0408543162 0.0195935965 16636520 0.0000000000 0.0000000000 0.0000000000 0.0000000000
-0.0224397406 -0.0408558957 0.0185935795 16504932 0.0000000000 0.0000000000 0.0000000000 0.0000000000
-0.0232668146 -0.0408558957 0.0185935795 16504932 0.0000000000 0.0000000000 0.0000000000 0.0000000000
-0.0238784403 -0.0408574790 0.0175935924 16636007 0.0000000000 0.0000000000 0.0000000000 0.0000000000
-0.0244934410 -0.0408590585 0.0165935755 16570214 0.0000000000 0.0000000000 0.0000000000 0.0000000000
-0.0253238901 -0.0408590585 0.0165935755 16372835 0.0000000000 0.0000000000 0.0000000000 0.0000000000
-0.0259439349 -0.0408606417 0.0155935884 16372835 0.0000000000 0.0000000000 0.0000000000 0.0000000000
-0.0265673473 -0.0408622213 0.0145935714 16503651 0.0000000000 0.0000000000 0.0000000000 0.0000000000
-0.0271941349 -0.0408638045 0.0135935843 16372065 0.0000000000 0.0000000000 0.0000000000 0.0000000000
-0.0280296355 -0.0408638045 0.0135935843 16372067 0.0000000000 0.0000000000 0.0000000000 0.0000000000
-0.0286614746 -0.0408653878 0.0125935972 16503653 0.0000000000 0.0000000000 0.0000000000 0.0000000000
-0.0292966738 -0.0408669673 0.0115935802 16371553 0.0000000000 0.0000000000 0.0000000000 0.0000000000
-0.0299352556 -0.0408685505 0.0105935931 16437346 0.0000000000 0.0000000000 0.0000000000 0.0000000000
-0.0305772051 -0.0408701301 0.0095936060 16502372 0.0000000000 0.0000000000 0.0000000000 0.0000000000
-0.0312225148 -0.0408717133 0.0085935593 16304993 0.0000000000 0.0000000000 0.0000000000 0.0000000000
-0.0318711996 -0.0408732928 0.0075935721 16435809 0.0000000000 0.0000000000 0.0000000000 0.0000000000
-0.0325232521 -0.0408748761 0.0065935850 16370016 0.0000000000 0.0000000000 0.0000000000 0.0000000000
-0.0331786796 -0.0408764556 0.0055935979 16369503 0.0000000000 0.0000000000 0.0000000000 0.0000000000
-0.0338374749 -0.0408780389 0.0045936108 16369503 0.0000000000 0.0000000000 0.0000000000 0.0000000000
-0.0344996229 -0.0408796184 0.0035935640 16369505 0.0000000000 0.0000000000 0.0000000000 0.0000000000
-0.0353519619 -0.0408796184 0.0035935640 16303712 0.0000000000 0.0000000000 0.0000000000 0.0000000000
-0.0360191837 -0.0408812016 0.0025935769 15976051 0.0000000000 0.0000000000 0.0000000000 0.0000000000
0.0456208289 -0.0400272757 0.0035935640 5524290 0.0000000000 0.0000000000 0.0000000000 0.0000000000
0.0447684824 -0.0400272757 0.0035935640 11506533 0.0000000000 0.0000000000 0.0000000000 0.0000000000
0.0435726345 -0.0400273763 0.0045936108 11309154 0.0000000000 0.0000000000 0.0000000000 0.0000000000
0.0423801988 -0.0400274806 0.0055935979 11702088 0.0000000000 0.0000000000 0.0000000000 0.0000000000
0.0415312201 -0.0400274806 0.0055935979 11570502 0.0000000000 0.0000000000 0.0000000000 0.0000000000
0.0403438210 -0.0400275849 0.0065935850 11700539 0.0000000000 0.0000000000 0.0000000000 0.0000000000
0.0391598195 -0.0400276855 0.0075935721 11371574 0.0000000000 0.0000000000 0.0000000000 0.0000000000
0.0379791558 -0.0400277898 0.0085935593 10844717 0.0000000000 0.0000000000 0.0000000000 0.0000000000
0.0368018448 -0.0400278941 0.0095936060 10976303 0.0000000000 0.0000000000 0.0000000000 0.0000000000
0.0356279314 -0.0400279947 0.0105935931 11107889 0.0000000000 0.0000000000 0.0000000000 0.0000000000
0.0344573855 -0.0400280990 0.0115935802 11173682 0.0000000000 0.0000000000 0.0000000000 0.0000000000
0.0332902074 -0.0400281996 0.0125935972 11173684 0.0000000000 0.0000000000 0.0000000000 0.0000000000
0.0321263969 -0.0400283039 0.0135935843 11502649 0.0000000000 0.0000000000 0.0000000000 0.0000000000
0.0309659541 -0.0400284082 0.0145935714 11041844 0.0000000000 0.0000000000 0.0000000000 0.0000000000
0.0298088789 -0.0400285088 0.0155935884 11041844 0.0000000000 0.0000000000 0.0000000000 0.0000000000
0.0286551714 -0.0400286131 0.0165935755 10910773 0.0000000000 0.0000000000 0.0000000000 0.0000000000
0.0278247148 -0.0400286131 0.0165935755 10910773 0.0000000000 0.0000000000 0.0000000000 0.0000000000
0.0266760737 -0.0400287174 0.0175935924 10910773 0.0000000000 0.0000000000 0.0000000000 0.0000000000
0.0252142549 -0.0400289223 0.0195935965 10779189 0.0000000000 0.0000000000 0.0000000000 0.0000000000
0.0243888646 -0.0400289223 0.0195935965 10647603 0.0000000000 0.0000000000 0.0000000000 0.0000000000
0.0232503265 -0.0400290228 0.0205935836 10779187 0.0000000000 0.0000000000 0.0000000000 0.0000000000
0.0221151412 -0.0400291272 0.0215935707 10910773 0.0000000000 0.0000000000 0.0000000000 0.0000000000
0.0212931186 -0.0400291272 0.0215935707 10450222 0.0000000000 0.0000000000 0.0000000000 0.0000000000
0.0201629996 -0.0400292315 0.0225935876 10581808 0.0000000000 0.0000000000 0.0000000000 0.0000000000
0.0193426609 -0.0400292315 0.0225935876 10712881 0.0000000000 0.0000000000 0.0000000000 0.0000000000
0.0182175785 -0.0400293320 0.0235935748 10844467 0.0000000000 0.0000000000 0.0000000000 0.0000000000
0.0173989385 -0.0400293320 0.0235935748 10647088 0.0000000000 0.0000000000 0.0000000000 0.0000000000
0.0162789077 -0.0400294363 0.0245935917 10712881 0.0000000000 0.0000000000 0.0000000000 0.0000000000
0.0154619366 -0.0400294363 0.0245935917 10712363 0.0000000000 0.0000000000 0.0000000000 0.0000000000
0.0146449655 -0.0400294363 0.0245935917 10383398 0.0000000000 0.0000000000 0.0000000000 0.0000000000
0.0135316849 -0.0400295407 0.0255935788 10383136 0.0000000000 0.0000000000 0.0000000000 0.0000000000
0.0127163976 -0.0400295407 0.0255935788 10185757 0.0000000000 0.0000000000 0.0000000000 0.0000000000
0.0116081834 -0.0400296412 0.0265935957 9987863 0.0000000000 0.0000000000 0.0000000000 0.0000000000
0.0107945651 -0.0400296412 0.0265935957 10315025 0.0000000000 0.0000000000 0.0000000000 0.0000000000
0.0099809766 -0.0400296412 0.0265935957 10709783 0.0000000000 0.0000000000 0.0000000000 0.0000000000
0.0091673732 -0.0400296412 0.0265935957 11761951 0.0000000000 0.0000000000 0.0000000000 0.0000000000
0.0083537698 -0.0400296412 0.0265935957 13012018 0.0000000000 0.0000000000 0.0000000000 0.0000000000
0.0072556585 -0.0400297455 0.0275935829 14066246 0.0000000000 0.0000000000 0.0000000000 0.0000000000
0.0064437389 -0.0400297455 0.0275935829 15316313 0.0000000000 0.0000000000 0.0000000000 0.0000000000
0.0056318194 -0.0400297455 0.0275935829 16237665 0.0000000000 0.0000000000 0.0000000000 0.0000000000
0.0048198998 -0.0400297455 0.0275935829 16435044 0.0000000000 0.0000000000 0.0000000000 0.0000000000
0.0037302077 -0.0400298499 0.0285935700 16633188 0.0000000000 0.0000000000 0.0000000000 0.0000000000
0.0029199719 -0.0400298499 0.0285935700 16765288 0.0000000000 0.0000000000 0.0000000000 0.0000000000
0.0021097511 -0.0400298499 0.0285935700 16766317 0.0000000000 0.0000000000 0.0000000000 0.0000000000
0.0012995005 -0.0400298499 0.0285935700 16765546 0.0000000000 0.0000000000 0.0000000000 0.0000000000
0.0004892647 -0.0400298499 0.0285935700 16765546 0.0000000000 0.0000000000 0.0000000000 0.0000000000
-0.0003209561 -0.0400298499 0.0285935700 16699753 0.0000000000 0.0000000000 0.0000000000 0.0000000000
-0.0011311918 -0.0400298499 0.0285935700 16634219 0.0000000000 0.0000000000 0.0000000000 0.0000000000
-0.0016754419 -0.0400297455 0.0275935829 16634219 0.0000000000 0.0000000000 0.0000000000 0.0000000000
-0.0024873614 -0.0400297455 0.0275935829 16766062 0.0000000000 0.0000000000 0.0000000000 0.0000000000
-0.0032992810 -0.0400297455 0.0275935829 16766319 0.0000000000 0.0000000000 0.0000000000 0.0000000000
-0.0041112006 -0.0400297455 0.0275935829 16700528 0.0000000000 0.0000000000 0.0000000000 0.0000000000
-0.0046638697 -0.0400296412 0.0265935957 16766321 0.0000000000 0.0000000000 0.0000000000 0.0000000000
-0.0054774806 -0.0400296412 0.0265935957 16700528 0.0000000000 0.0000000000 0.0000000000 0.0000000000
-0.0062910765 -0.0400296412 0.0265935957 16766321 0.0000000000 0.0000000000 0.0000000000 0.0000000000
-0.0071046799 -0.0400296412 0.0265935957 16569712 0.0000000000 0.0000000000 0.0000000000 0.0000000000
-0.0076657608 -0.0400295407 0.0255935788 16767091 0.0000000000 0.0000000000 0.0000000000 0.0000000000
-0.0084810406 -0.0400295407 0.0255935788 16767606 0.0000000000 0.0000000000 0.0000000000 0.0000000000
-0.0092963353 -0.0400295407 0.0255935788 16768634 0.0000000000 0.0000000000 0.0000000000 0.0000000000
-0.0098641664 -0.0400294363 0.0245935917 16768635 0.0000000000 0.0000000000 0.0000000000 0.0000000000
-0.0106811374 -0.0400294363 0.0245935917 16769663 0.0000000000 0.0000000000 0.0000000000 0.0000000000
-0.0114981085 -0.0400294363 0.0245935917 16704128 0.0000000000 0.0000000000 0.0000000000 0.0000000000
-0.0123150647 -0.0400294363 0.0245935917 16638846 0.0000000000 0.0000000000 0.0000000000 0.0000000000
-0.0128913298 -0.0400293320 0.0235935748 16638846 0.0000000000 0.0000000000 0.0000000000 0.0000000000
-0.0137099773 -0.0400293320 0.0235935748 16506747 0.0000000000 0.0000000000 0.0000000000 0.0000000000
-0.0145286247 -0.0400293320 0.0235935748 16506747 0.0000000000 0.0000000000 0.0000000000 0.0000000000
-0.0151116401 -0.0400292315 0.0225935876 16309622 0.0000000000 0.0000000000 0.0000000000 0.0000000000
-0.0159319639 -0.0400292315 0.0225935876 16178036 0.0000000000 0.0000000000 0.0000000000 0.0000000000
-0.0167523101 -0.0400292315 0.0225935876 16374641 0.0000000000 0.0000000000 0.0000000000 0.0000000000
-0.0173420385 -0.0400291272 0.0215935707 16374641 0.0000000000 0.0000000000 0.0000000000 0.0000000000
-0.0181640610 -0.0400291272 0.0215935707 16505965 0.0000000000 0.0000000000 0.0000000000 0.0000000000
-0.0189860761 -0.0400291272 0.0215935707 16440172 0.0000000000 0.0000000000 0.0000000000 0.0000000000
-0.0195825547 -0.0400290228 0.0205935836 16439913 0.0000000000 0.0000000000 0.0000000000 0.0000000000
-0.0204062611 -0.0400290228 0.0205935836 16374120 0.0000000000 0.0000000000 0.0000000000 0.0000000000
-0.0210077763 -0.0400289223 0.0195935965 16373350 0.0000000000 0.0000000000 0.0000000000 0.0000000000
-0.0218331665 -0.0400289223 0.0195935965 16570729 0.0000000000 0.0000000000 0.0000000000 0.0000000000
-0.0226585642 -0.0400289223 0.0195935965 16373350 0.0000000000 0.0000000000 0.0000000000 0.0000000000
-0.0232668146 -0.0400288180 0.0185935795 16504936 0.0000000000 0.0000000000 0.0000000000 0.0000000000
-0.0238784403 -0.0400287174 0.0175935924 16570214 0.0000000000 0.0000000000 0.0000000000 0.0000000000
-0.0244934410 -0.0400286131 0.0165935755 16438628 0.0000000000 0.0000000000 0.0000000000 0.0000000000
-0.0253238901 -0.0400286131 0.0165935755 16437858 0.0000000000 0.0000000000 0.0000000000 0.0000000000
-0.0259439349 -0.0400285088 0.0155935884 16503651 0.0000000000 0.0000000000 0.0000000000 0.0000000000
-0.0267760679 -0.0400285088 0.0155935884 16437858 0.0000000000 0.0000000000 0.0000000000 0.0000000000
-0.0274011642 -0.0400284082 0.0145935714 16372065 0.0000000000 0.0000000000 0.0000000000 0.0000000000
-0.0280296355 -0.0400283039 0.0135935843 16503137 0.0000000000 0.0000000000 0.0000000000 0.0000000000
-0.0286614746 -0.0400281996 0.0125935972 16437344 0.0000000000 0.0000000000 0.0000000000 0.0000000000
-0.0292966738 -0.0400280990 0.0115935802 16436831 0.0000000000 0.0000000000 0.0000000000 0.0000000000
-0.0299352556 -0.0400279947 0.0105935931 16502624 0.0000000000 0.0000000000 0.0000000000 0.0000000000
-0.0305772051 -0.0400278941 0.0095936060 16305247 0.0000000000 0.0000000000 0.0000000000 0.0000000000
-0.0312225148 -0.0400277898 0.0085935593 16305247 0.0000000000 0.0000000000 0.0000000000 0.0000000000
-0.0318711996 -0.0400276855 0.0075935721 16436063 0.0000000000 0.0000000000 0.0000000000 0.0000000000
-0.0325232521 -0.0400275849 0.0065935850 16436063 0.0000000000 0.0000000000 0.0000000000 0.0000000000
-0.0331786796 -0.0400274806 0.0055935979 16435550 0.0000000000 0.0000000000 0.0000000000 0.0000000000
-0.0338374749 -0.0400273763 0.0045936108 16303964 0.0000000000 0.0000000000 0.0000000000 0.0000000000
-0.0344996229 -0.0400272757 0.0035935640 16434780 0.0000000000 0.0000000000 0.0000000000 0.0000000000
-0.0353519619 -0.0400272757 0.0035935640 16434780 0.0000000000 0.0000000000 0.0000000000 0.0000000000
-0.0360191837 -0.0400271714 0.0025935769 16237928 0.0000000000 0.0000000000 0.0000000000 0.0000000000
0.0459676683 -0.0391731411 0.0025935769 6641739 0.0000000000 0.0000000000 0.0000000000 0.0000000000
0.0447684824 -0.0391749293 0.0035935640 11439961 0.0000000000 0.0000000000 0.0000000000 0.0000000000
0.0439161360 -0.0391749293 0.0035935640 11242582 0.0000000000 0.0000000000 0.0000000000 0.0000000000
0.0427219868 -0.0391767174 0.0045936108 11306812 0.0000000000 0.0000000000 0.0000000000 0.0000000000
0.0415312201 -0.0391785055 0.0055935979 11241019 0.0000000000 0.0000000000 0.0000000000 0.0000000000
0.0406822413 -0.0391785055 0.0055935979 11503160 0.0000000000 0.0000000000 0.0000000000 0.0000000000
0.0394965410 -0.0391802900 0.0065935850 11437367 0.0000000000 0.0000000000 0.0000000000 0.0000000000
0.0383142084 -0.0391820781 0.0075935721 11174195 0.0000000000 0.0000000000 0.0000000000 0.0000000000
0.0371352285 -0.0391838662 0.0085935593 11503160 0.0000000000 0.0000000000 0.0000000000 0.0000000000
0.0359596163 -0.0391856544 0.0095936060 11503160 0.0000000000 0.0000000000 0.0000000000 0.0000000000
0.0347873867 -0.0391874425 0.0105935931 11897918 0.0000000000 0.0000000000 0.0000000000 0.0000000000
0.0336185247 -0.0391892269 0.0115935802 11108404 0.0000000000 0.0000000000 0.0000000000 0.0000000000
0.0324530154 -0.0391910151 0.0125935972 11503162 0.0000000000 0.0000000000 0.0000000000 0.0000000000
0.0312908888 -0.0391928032 0.0135935843 11173943 0.0000000000 0.0000000000 0.0000000000 0.0000000000
0.0301321447 -0.0391945913 0.0145935714 11042357 0.0000000000 0.0000000000 0.0000000000 0.0000000000
0.0289767385 -0.0391963795 0.0155935884 10911541 0.0000000000 0.0000000000 0.0000000000 0.0000000000
0.0278247148 -0.0391981676 0.0165935755 10911541 0.0000000000 0.0000000000 0.0000000000 0.0000000000
0.0266760737 -0.0391999520 0.0175935924 10911541 0.0000000000 0.0000000000 0.0000000000 0.0000000000
0.0255307853 -0.0392017402 0.0185935795 10911541 0.0000000000 0.0000000000 0.0000000000 0.0000000000
0.0243888646 -0.0392035283 0.0195935965 11043127 0.0000000000 0.0000000000 0.0000000000 0.0000000000
0.0235634744 -0.0392035283 0.0195935965 10911543 0.0000000000 0.0000000000 0.0000000000 0.0000000000
0.0224266052 -0.0392053165 0.0205935836 10845750 0.0000000000 0.0000000000 0.0000000000 0.0000000000
0.0212931186 -0.0392071046 0.0215935707 11042357 0.0000000000 0.0000000000 0.0000000000 0.0000000000
0.0204710960 -0.0392071046 0.0215935707 11371322 0.0000000000 0.0000000000 0.0000000000 0.0000000000
0.0193426609 -0.0392088890 0.0225935876 11042357 0.0000000000 0.0000000000 0.0000000000 0.0000000000
0.0185223073 -0.0392088890 0.0225935876 11042357 0.0000000000 0.0000000000 0.0000000000 0.0000000000
0.0173989385 -0.0392106771 0.0235935748 11108150 0.0000000000 0.0000000000 0.0000000000 0.0000000000
0.0165802687 -0.0392106771 0.0235935748 11108150 0.0000000000 0.0000000000 0.0000000000 0.0000000000
0.0157616138 -0.0392106771 0.0235935748 10581293 0.0000000000 0.0000000000 0.0000000000 0.0000000000
0.0146449655 -0.0392124653 0.0245935917 10581293 0.0000000000 0.0000000000 0.0000000000 0.0000000000
0.0138279945 -0.0392124653 0.0245935917 10712879 0.0000000000 0.0000000000 0.0000000000 0.0000000000
0.0127163976 -0.0392142534 0.0255935788 10647086 0.0000000000 0.0000000000 0.0000000000 0.0000000000
0.0119011253 -0.0392142534 0.0255935788 10777902 0.0000000000 0.0000000000 0.0000000000 0.0000000000
0.0110858232 -0.0392142534 0.0255935788 10580263 0.0000000000 0.0000000000 0.0000000000 0.0000000000
0.0099809766 -0.0392160416 0.0265935957 9988126 0.0000000000 0.0000000000 0.0000000000 0.0000000000
0.0091673732 -0.0392160416 0.0265935957 10183959 0.0000000000 0.0000000000 0.0000000000 0.0000000000
0.0083537698 -0.0392160416 0.0265935957 10315545 0.0000000000 0.0000000000 0.0000000000 0.0000000000
0.0072556585 -0.0392178260 0.0275935829 10775578 0.0000000000 0.0000000000 0.0000000000 0.0000000000
0.0064437389 -0.0392178260 0.0275935829 11762473 0.0000000000 0.0000000000 0.0000000000 0.0000000000
0.0056318194 -0.0392178260 0.0275935829 12881972 0.0000000000 0.0000000000 0.0000000000 0.0000000000
0.0048198998 -0.0392178260 0.0275935829 14066246 0.0000000000 0.0000000000 0.0000000000 0.0000000000
0.0040079802 -0.0392178260 0.0275935829 15119184 0.0000000000 0.0000000000 0.0000000000 0.0000000000
0.0029199719 -0.0392196141 0.0285935700 15908700 0.0000000000 0.0000000000 0.0000000000 0.0000000000
0.0021097511 -0.0392196141 0.0285935700 16633190 0.0000000000 0.0000000000 0.0000000000 0.0000000000
0.0012995005 -0.0392196141 0.0285935700 16765033 0.0000000000 0.0000000000 0.0000000000 0.0000000000
0.0004892647 -0.0392196141 0.0285935700 16764776 0.0000000000 0.0000000000 0.0000000000 0.0000000000
-0.0003209561 -0.0392196141 0.0285935700 16765290 0.0000000000 0.0000000000 0.0000000000 0.0000000000
-0.0011311918 -0.0392196141 0.0285935700 16765292 0.0000000000 0.0000000000 0.0000000000 0.0000000000
-0.0016754419 -0.0392178260 0.0275935829 16699499 0.0000000000 0.0000000000 0.0000000000 0.0000000000
